2.705980e-01 2.544390e-01 4.713110e-01
2.705980e-01 2.544390e-01 5.188140e-01
2.705980e-01 2.822680e-01 5.188140e-01
2.705980e-01 2.822680e-01 4.713110e-01
3.969510e-01 2.544390e-01 4.713110e-01
3.969510e-01 2.822680e-01 4.713110e-01
3.969510e-01 2.822680e-01 5.188140e-01
3.969510e-01 2.544390e-01 5.188140e-01
2.552250e-01 2.896740e-01 4.373100e-01
4.123240e-01 2.896740e-01 4.373100e-01
4.123240e-01 2.896740e-01 3.898060e-01
2.552250e-01 2.896740e-01 3.898060e-01
4.123240e-01 2.618450e-01 3.898060e-01
2.552250e-01 2.618450e-01 3.898060e-01
2.552250e-01 2.618450e-01 4.373100e-01
4.123240e-01 2.618450e-01 4.373100e-01
2.656610e-01 2.359240e-01 3.268170e-01
2.656610e-01 2.359240e-01 3.743210e-01
2.656610e-01 2.637530e-01 3.743210e-01
2.656610e-01 2.637530e-01 3.268170e-01
4.018880e-01 2.359240e-01 3.268170e-01
4.018880e-01 2.637530e-01 3.268170e-01
4.018880e-01 2.637530e-01 3.743210e-01
4.018880e-01 2.359240e-01 3.743210e-01
3.934350e-01 2.056260e-01 2.403380e-01
3.693830e-01 2.398140e-01 2.690640e-01
2.981650e-01 2.398140e-01 2.690640e-01
2.741140e-01 2.056260e-01 2.403380e-01
2.632670e-01 1.562150e-01 1.433480e-01
3.227400e-01 1.365400e-01 3.685720e-02
3.448090e-01 1.365400e-01 3.685720e-02
4.042820e-01 1.562150e-01 1.433480e-01
2.741140e-01 3.195230e-01 2.047290e-01
3.934350e-01 3.195230e-01 2.047290e-01
4.036090e-01 2.873930e-01 9.453500e-02
2.639400e-01 2.873930e-01 9.453500e-02
3.227400e-01 1.575240e-01 3.031140e-02
3.448090e-01 1.575240e-01 3.031140e-02
3.693830e-01 3.078530e-01 2.477810e-01
2.981650e-01 3.078530e-01 2.477810e-01
2.714580e-01 3.393850e-01 6.326360e-01
2.969310e-01 3.255080e-01 6.189460e-01
2.909460e-01 2.777050e-01 6.046950e-01
2.614710e-01 2.586290e-01 6.085850e-01
2.603490e-01 3.130520e-01 7.119710e-01
2.485670e-01 2.287800e-01 6.661510e-01
2.781910e-01 2.311740e-01 7.356110e-01
2.883650e-01 2.565340e-01 7.741750e-01
3.766030e-01 2.777050e-01 6.046950e-01
3.706180e-01 3.255080e-01 6.189460e-01
3.791830e-01 2.565340e-01 7.741750e-01
4.071990e-01 3.130520e-01 7.119710e-01
3.893570e-01 2.311740e-01 7.356110e-01
4.189820e-01 2.287800e-01 6.661510e-01
4.060770e-01 2.586290e-01 6.085850e-01
3.960900e-01 3.393850e-01 6.326360e-01
1.555420e-01 1.623870e-01 6.013660e-01
7.280300e-02 3.850300e-02 6.474490e-01
7.762820e-02 3.659540e-02 6.563880e-01
1.604040e-01 1.604790e-01 6.103060e-01
8.533350e-02 3.240610e-02 6.512640e-01
1.680720e-01 1.562900e-01 6.051820e-01
8.050830e-02 3.442590e-02 6.423240e-01
1.810890e-01 3.010830e-01 6.301680e-01
2.718320e-01 2.818940e-01 5.156730e-01
2.524570e-01 2.818940e-01 5.030300e-01
1.617140e-01 3.010830e-01 6.175250e-01
2.524570e-01 2.587030e-01 5.030300e-01
1.617140e-01 2.780040e-01 6.175250e-01
1.810890e-01 2.780040e-01 6.301680e-01
1.567760e-01 2.931900e-01 6.382470e-01
1.472750e-01 1.518390e-01 6.121010e-01
1.688580e-01 1.474620e-01 6.149440e-01
1.782460e-01 2.888510e-01 6.410900e-01
1.724490e-01 1.512780e-01 5.934740e-01
1.818750e-01 2.926290e-01 6.196200e-01
1.509040e-01 1.556540e-01 5.906310e-01
1.604040e-01 2.970060e-01 6.167770e-01
2.718320e-01 2.587030e-01 5.156730e-01
1.632470e-01 1.583100e-01 5.962420e-01
5.822150e-01 3.240610e-02 6.512640e-01
5.870400e-01 3.442590e-02 6.423240e-01
5.947460e-01 3.850300e-02 6.474490e-01
5.899200e-01 3.659540e-02 6.563880e-01
4.994760e-01 1.562900e-01 6.051820e-01
5.071440e-01 1.604790e-01 6.103060e-01
5.120070e-01 1.623870e-01 6.013660e-01
5.058350e-01 3.010830e-01 6.175250e-01
4.864600e-01 3.010830e-01 6.301680e-01
4.864600e-01 2.780040e-01 6.301680e-01
5.058350e-01 2.780040e-01 6.175250e-01
4.150920e-01 2.818940e-01 5.030300e-01
4.150920e-01 2.587030e-01 5.030300e-01
3.957160e-01 2.818940e-01 5.156730e-01
4.951000e-01 1.512780e-01 5.934740e-01
5.166450e-01 1.556540e-01 5.906310e-01
5.202730e-01 1.518390e-01 6.121010e-01
4.986910e-01 1.474620e-01 6.149440e-01
4.856740e-01 2.926290e-01 6.196200e-01
4.893020e-01 2.888510e-01 6.410900e-01
5.107730e-01 2.931900e-01 6.382470e-01
5.071440e-01 2.970060e-01 6.167770e-01
3.957160e-01 2.587030e-01 5.156730e-01
5.043020e-01 1.583100e-01 5.962420e-01
8.780220e-02 3.102090e-01 3.513170e-01
4.620840e-02 1.909640e-01 3.339240e-01
6.775340e-02 1.865130e-01 3.367670e-01
1.092720e-01 3.058330e-01 3.541600e-01
7.138160e-02 1.903280e-01 3.152960e-01
1.129010e-01 3.096480e-01 3.326150e-01
4.979920e-02 1.947040e-01 3.124540e-01
1.055690e-01 3.259940e-01 3.543470e-01
2.379070e-01 2.989880e-01 4.049180e-01
2.449390e-01 2.989880e-01 3.827740e-01
1.126010e-01 3.259940e-01 3.322410e-01
2.449390e-01 2.758350e-01 3.827740e-01
1.126010e-01 3.028030e-01 3.322410e-01
1.055690e-01 3.028030e-01 3.543470e-01
4.979920e-02 1.956390e-01 3.247970e-01
2.500000e-02 2.653360e-02 3.396470e-01
3.177020e-02 2.537400e-02 3.473150e-01
5.656940e-02 1.944800e-01 3.326150e-01
3.936330e-02 2.500000e-02 3.406940e-01
6.416250e-02 1.941060e-01 3.258450e-01
3.263050e-02 2.615950e-02 3.329890e-01
5.739230e-02 1.952650e-01 3.181770e-01
2.379070e-01 2.758350e-01 4.049180e-01
9.143040e-02 3.140250e-01 3.297350e-01
5.961670e-01 1.903280e-01 3.152960e-01
6.177490e-01 1.947040e-01 3.124540e-01
6.213400e-01 1.909640e-01 3.339240e-01
5.997950e-01 1.865130e-01 3.367670e-01
5.546480e-01 3.096480e-01 3.326150e-01
5.582760e-01 3.058330e-01 3.541600e-01
5.797460e-01 3.102090e-01 3.513170e-01
5.549470e-01 3.259940e-01 3.322410e-01
5.619790e-01 3.259940e-01 3.543470e-01
5.619790e-01 3.028030e-01 3.543470e-01
5.549470e-01 3.028030e-01 3.322410e-01
4.226100e-01 2.989880e-01 3.827740e-01
4.226100e-01 2.758350e-01 3.827740e-01
4.296420e-01 2.989880e-01 4.049180e-01
6.281850e-01 2.500000e-02 3.406940e-01
6.349180e-01 2.615950e-02 3.329890e-01
6.425490e-01 2.653360e-02 3.396470e-01
6.357780e-01 2.537400e-02 3.473150e-01
6.033860e-01 1.941060e-01 3.258450e-01
6.109790e-01 1.944800e-01 3.326150e-01
6.177490e-01 1.956390e-01 3.247970e-01
6.101560e-01 1.952650e-01 3.181770e-01
4.296420e-01 2.758350e-01 4.049180e-01
5.761180e-01 3.140250e-01 3.297350e-01
9.891130e-02 3.164930e-01 1.848670e-01
9.161750e-02 1.686710e-01 1.420390e-01
1.131620e-01 1.642940e-01 1.448810e-01
1.204940e-01 3.121170e-01 1.877100e-01
1.167910e-01 1.680720e-01 1.232990e-01
1.240850e-01 3.158950e-01 1.661650e-01
9.520830e-02 1.724490e-01 1.204560e-01
1.002580e-01 3.287250e-01 1.887570e-01
2.432180e-01 2.781160e-01 3.435370e-01
2.580680e-01 2.781160e-01 3.257700e-01
1.150700e-01 3.287250e-01 1.709150e-01
2.580680e-01 2.549260e-01 3.257700e-01
1.150700e-01 3.055710e-01 1.709150e-01
1.002580e-01 3.055710e-01 1.887570e-01
9.722810e-02 1.794060e-01 1.395700e-01
1.029140e-01 5.454960e-02 2.971300e-02
1.096460e-01 4.800380e-02 3.408930e-02
1.039610e-01 1.728230e-01 1.438340e-01
1.172770e-01 5.275420e-02 2.933890e-02
1.115540e-01 1.775730e-01 1.390840e-01
1.105070e-01 5.922510e-02 2.500000e-02
1.048210e-01 1.840440e-01 1.348200e-01
2.432180e-01 2.549260e-01 3.435370e-01
1.025400e-01 3.202710e-01 1.633220e-01
5.507580e-01 1.680720e-01 1.232990e-01
5.723400e-01 1.724490e-01 1.204560e-01
5.759310e-01 1.686710e-01 1.420390e-01
5.543860e-01 1.642940e-01 1.448810e-01
5.434640e-01 3.158950e-01 1.661650e-01
5.470550e-01 3.121170e-01 1.877100e-01
5.686370e-01 3.164930e-01 1.848670e-01
5.524790e-01 3.287250e-01 1.709150e-01
5.672910e-01 3.287250e-01 1.887570e-01
5.672910e-01 3.055710e-01 1.887570e-01
5.524790e-01 3.055710e-01 1.709150e-01
4.094810e-01 2.781160e-01 3.257700e-01
4.094810e-01 2.549260e-01 3.257700e-01
4.243310e-01 2.781160e-01 3.435370e-01
5.502720e-01 5.275420e-02 2.933890e-02
5.570420e-01 5.922510e-02 2.500000e-02
5.646350e-01 5.454960e-02 2.971300e-02
5.579020e-01 4.800380e-02 3.408930e-02
5.559950e-01 1.775730e-01 1.390840e-01
5.635880e-01 1.728230e-01 1.438340e-01
5.703200e-01 1.794060e-01 1.395700e-01
5.627270e-01 1.840440e-01 1.348200e-01
4.243310e-01 2.549260e-01 3.435370e-01
5.650090e-01 3.202710e-01 1.633220e-01
3.057580e-01 2.705980e-01 3.323160e-01
3.207580e-01 2.569080e-01 2.411230e-01
3.467910e-01 2.569080e-01 2.411230e-01
3.617900e-01 2.705980e-01 3.323160e-01
2.851480e-01 2.624060e-01 3.491480e-01
3.824000e-01 2.624060e-01 3.491480e-01
3.198220e-01 3.130520e-01 5.953070e-01
3.239000e-01 3.130520e-01 6.366010e-01
3.436490e-01 3.130520e-01 6.366010e-01
3.477260e-01 3.130520e-01 5.953070e-01
3.660920e-01 3.462300e-01 6.172260e-01
3.477260e-01 2.900860e-01 5.703950e-01
3.660920e-01 2.709720e-01 5.356090e-01
3.941080e-01 3.757800e-01 5.471300e-01
3.941080e-01 3.005220e-01 4.656250e-01
3.915270e-01 3.818390e-01 4.627450e-01
2.786770e-01 2.857100e-01 4.094440e-01
2.786770e-01 3.460430e-01 3.861030e-01
2.851480e-01 3.227400e-01 3.257700e-01
3.207580e-01 2.730670e-01 2.348390e-01
3.467910e-01 2.730670e-01 2.348390e-01
3.888710e-01 3.460430e-01 3.861030e-01
3.824000e-01 3.227400e-01 3.257700e-01
3.888710e-01 2.857100e-01 4.094440e-01
2.734410e-01 3.005220e-01 4.656250e-01
3.014570e-01 2.709720e-01 5.356090e-01
3.198220e-01 2.900860e-01 5.703950e-01
3.436490e-01 2.900860e-01 6.117270e-01
2.760220e-01 3.818390e-01 4.627450e-01
3.617900e-01 3.053840e-01 3.189250e-01
3.057580e-01 3.053840e-01 3.189250e-01
3.239000e-01 2.900860e-01 6.117270e-01
3.014570e-01 3.462300e-01 6.172260e-01
2.734410e-01 3.757800e-01 5.471300e-01
2.166230e-01 5.455210e-01 9.271220e-01
2.057010e-01 5.475410e-01 9.693150e-01
2.119850e-01 5.475410e-01 9.720820e-01
2.359240e-01 5.455210e-01 9.356880e-01
2.459110e-01 5.278660e-01 8.654800e-01
2.618450e-01 5.278660e-01 8.725860e-01
3.063190e-01 4.820830e-01 7.398000e-01
3.142120e-01 4.820830e-01 7.433160e-01
3.099100e-01 4.769590e-01 7.280930e-01
3.204580e-01 4.769590e-01 7.327680e-01
3.114440e-01 4.698150e-01 7.247640e-01
3.219920e-01 4.698150e-01 7.293270e-01
3.114440e-01 4.599400e-01 7.247640e-01
3.219920e-01 4.599400e-01 7.293270e-01
3.173540e-01 2.693640e-01 7.398750e-01
3.219920e-01 2.693640e-01 7.293270e-01
3.173540e-01 4.599400e-01 7.398750e-01
3.068060e-01 2.693640e-01 7.352370e-01
3.068060e-01 4.599400e-01 7.352370e-01
4.548900e-01 5.224430e-01 9.361740e-01
4.630820e-01 5.400230e-01 9.722690e-01
4.569100e-01 5.400230e-01 9.750000e-01
4.356270e-01 5.224430e-01 9.447020e-01
4.249670e-01 5.087530e-01 8.729980e-01
4.090320e-01 5.087530e-01 8.800300e-01
3.628380e-01 4.725820e-01 7.435030e-01
3.549450e-01 4.725820e-01 7.470190e-01
3.614160e-01 4.669720e-01 7.367330e-01
3.508680e-01 4.669720e-01 7.412970e-01
3.607430e-01 4.638300e-01 7.352370e-01
3.501950e-01 4.638300e-01 7.398750e-01
3.607430e-01 4.599400e-01 7.352370e-01
3.501950e-01 4.599400e-01 7.398750e-01
4.618470e-01 5.475410e-01 9.693150e-01
4.555630e-01 5.475410e-01 9.720820e-01
3.455570e-01 4.599400e-01 7.293270e-01
3.561050e-01 4.599400e-01 7.247640e-01
3.561050e-01 2.693640e-01 7.247640e-01
3.455570e-01 2.693640e-01 7.293270e-01
3.607430e-01 2.693640e-01 7.352370e-01
3.455570e-01 4.698150e-01 7.293270e-01
3.470900e-01 4.769590e-01 7.327680e-01
3.533370e-01 4.820830e-01 7.433160e-01
4.057030e-01 5.278660e-01 8.725860e-01
4.316250e-01 5.455210e-01 9.356880e-01
3.114440e-01 2.693640e-01 7.247640e-01
3.068060e-01 4.638300e-01 7.352370e-01
3.061320e-01 4.669720e-01 7.367330e-01
3.047110e-01 4.725820e-01 7.435030e-01
2.425820e-01 5.087530e-01 8.729980e-01
2.126580e-01 5.224430e-01 9.361740e-01
2.044670e-01 5.400230e-01 9.722690e-01
2.106390e-01 5.400230e-01 9.750000e-01
2.319220e-01 5.224430e-01 9.447020e-01
2.585160e-01 5.087530e-01 8.800300e-01
3.126030e-01 4.725820e-01 7.470190e-01
3.166800e-01 4.669720e-01 7.412970e-01
3.173540e-01 4.638300e-01 7.398750e-01
4.509250e-01 5.455210e-01 9.271220e-01
4.216380e-01 5.278660e-01 8.654800e-01
3.612290e-01 4.820830e-01 7.398000e-01
3.576380e-01 4.769590e-01 7.280930e-01
3.561050e-01 4.698150e-01 7.247640e-01
3.501950e-01 2.693640e-01 7.398750e-01
