0.053135 -0.330366 0.298385 
0.059284 -0.330036 0.296693 
-0.214574 -0.028992 -0.122635 
-0.334537 -0.031518 -0.094819 
-0.286592 -0.030354 -0.108001 
-0.341606 0.271086 -0.038503 
-0.283850 0.158958 0.253763 
0.258233 0.142506 0.189977 
-0.200588 0.259644 0.101219 
-0.102332 0.404856 -0.070687 
-0.100867 0.015744 -0.136873 
-0.407155 0.182064 -0.019393 
-0.102637 0.449514 -0.090055 
-0.012871 0.467736 -0.124579 
-0.252104 0.350160 -0.003619 
-0.328166 0.383484 0.166463 
-0.328111 0.444168 -0.112699 
0.160331 -0.324756 0.274811 
0.166925 -0.324192 0.273701 
0.173512 -0.323952 0.272459 
-0.292610 -0.030480 -0.106759 
-0.214370 -0.151248 0.230825 
0.190672 -0.323202 0.265145 
0.195496 -0.323076 0.261503 
0.048940 0.084834 -0.128263 
0.204820 -0.322998 0.253907 
-0.442784 0.071076 0.064019 
-0.221221 0.167862 0.207773 
0.298469 0.061620 0.202619 
0.350597 0.024996 0.086639 
0.251915 0.069966 0.240629 
0.265931 0.069678 0.229367 
-0.353629 0.499398 -0.304639 
-0.316843 0.020694 -0.095263 
-0.172855 0.023376 -0.126901 
-0.094874 0.024324 -0.136087 
-0.311792 0.271194 -0.040297 
0.048922 0.093504 -0.128371 
-0.287582 0.200964 -0.043717 
0.079043 0.084786 -0.123865 
-0.311269 0.131916 -0.060793 
0.054952 0.084792 -0.127381 
-0.214736 -0.340884 0.275531 
-0.208436 -0.340794 0.274499 
0.262037 0.137646 0.191369 
0.254339 0.147312 0.188561 
0.245848 0.155688 0.185489 
-0.087337 0.201192 0.037451 
-0.080486 0.202098 0.039977 
-0.061004 -0.326580 0.333047 
-0.053989 -0.326094 0.332621 
-0.371528 0.226944 -0.037957 
-0.041138 -0.325044 0.329345 
-0.035312 -0.325248 0.328067 
-0.029444 -0.325062 0.325979 
-0.232561 -0.029076 -0.122401 
-0.220556 -0.029088 -0.121879 
-0.012914 -0.324342 0.317825 
-0.007033 -0.324216 0.315965 
-0.000890 -0.323904 0.314267 
0.005044 -0.323682 0.312413 
0.010889 -0.323574 0.310559 
0.016654 -0.323388 0.308507 
0.022648 -0.323016 0.306335 
-0.256646 -0.029352 -0.120397 
0.034612 -0.322494 0.302447 
0.040810 -0.322158 0.301379 
0.046612 -0.321894 0.299597 
0.052823 -0.321636 0.297293 
0.058798 -0.321420 0.295319 
0.064763 -0.321114 0.293987 
0.070781 -0.320934 0.291689 
0.076655 -0.320718 0.289877 
-0.299966 0.169134 0.295223 
-0.265267 0.261270 0.218297 
0.325924 0.074406 0.134651 
0.101668 -0.319482 0.283979 
0.108238 -0.319092 0.282989 
0.114838 -0.318714 0.282245 
0.121427 -0.318336 0.281315 
0.128339 -0.317862 0.280397 
0.115024 0.076074 -0.120739 
0.141484 -0.317106 0.278339 
0.148043 -0.316716 0.277169 
0.154606 -0.316326 0.276071 
0.161188 -0.315954 0.275171 
0.167776 -0.315570 0.274181 
0.174352 -0.315186 0.273131 
0.180827 -0.314748 0.271787 
0.186412 -0.314754 0.269669 
0.192064 -0.314502 0.267197 
0.197075 -0.314496 0.263915 
0.202378 -0.314346 0.261005 
0.207778 -0.314118 0.257987 
0.355852 -0.000024 0.032747 
-0.031201 0.450372 -0.065557 
-0.225080 0.202098 0.212981 
-0.025339 0.539004 -0.098713 
-0.051518 0.538974 -0.062575 
0.275075 0.053916 0.232061 
0.271030 0.054084 0.236717 
-0.292532 0.361908 -0.169909 
0.262684 0.006792 0.266621 
-0.178843 0.014634 -0.126139 
-0.190807 0.014412 -0.123853 
-0.232784 0.014190 -0.123151 
-0.238838 0.014202 -0.123331 
-0.268501 0.013470 -0.114709 
-0.274255 0.013158 -0.109081 
-0.280633 0.012840 -0.106321 
-0.211484 0.362040 0.074189 
0.095224 -0.326928 0.285965 
-0.430154 0.045816 0.010055 
-0.276188 0.227460 0.244595 
-0.389504 0.217776 -0.028747 
-0.385789 0.106662 0.256823 
-0.244904 0.022764 -0.122329 
-0.317155 0.165918 -0.045475 
-0.257102 0.022674 -0.120355 
-0.206953 0.175752 0.186167 
-0.280652 0.338706 0.228251 
-0.009314 0.547896 -0.117829 
-0.206677 0.210186 0.187085 
-0.246013 0.202350 0.235523 
0.082979 0.229518 0.151547 
0.016943 0.225594 0.127673 
0.265727 0.132366 0.192791 
-0.120403 0.422652 -0.077587 
-0.236648 -0.334764 0.286619 
-0.229670 -0.334374 0.286343 
-0.223393 -0.334284 0.285461 
-0.216788 -0.333984 0.284717 
-0.210470 -0.333804 0.283643 
-0.204361 -0.333474 0.281819 
-0.198206 -0.333150 0.280145 
-0.192086 -0.332850 0.278441 
-0.186242 -0.332688 0.276515 
-0.180212 -0.332310 0.274535 
-0.174962 -0.332472 0.271955 
-0.174392 0.225870 0.075971 
0.057838 0.030426 -0.175897 
-0.308624 0.380856 0.051395 
0.250277 0.151944 0.186971 
-0.154748 0.014982 -0.130315 
-0.099458 0.202392 0.032981 
-0.093578 0.201372 0.035177 
0.261485 0.157590 0.165467 
-0.318794 0.437352 -0.109231 
-0.061106 -0.318168 0.333173 
-0.054127 -0.317658 0.332051 
-0.047881 -0.317406 0.330857 
-0.041684 -0.317034 0.329279 
-0.035803 -0.316926 0.327407 
-0.029665 -0.316626 0.325661 
-0.023899 -0.316398 0.323327 
-0.018476 -0.316314 0.320783 
-0.012709 -0.316110 0.318545 
-0.006938 -0.315930 0.316463 
-0.000823 -0.315624 0.314699 
0.005080 -0.315432 0.312917 
0.010793 -0.315186 0.310517 
0.016546 -0.315012 0.308297 
0.022282 -0.314790 0.306119 
0.028474 -0.314496 0.304595 
0.034571 -0.314202 0.302777 
0.040378 -0.313998 0.300713 
0.046535 -0.313704 0.299051 
0.052750 -0.313410 0.297605 
0.058840 -0.313116 0.295739 
0.064691 -0.312930 0.293783 
0.070822 -0.312624 0.292091 
0.076624 -0.312414 0.290021 
0.082750 -0.312126 0.288335 
0.088948 -0.311838 0.286901 
0.095452 -0.311448 0.285707 
0.101602 -0.311154 0.284123 
0.108160 -0.310788 0.283061 
0.115066 -0.310326 0.282191 
0.121672 -0.309948 0.281453 
0.128621 -0.309492 0.280703 
0.135191 -0.309114 0.279677 
0.141790 -0.308736 0.278831 
0.148732 -0.308268 0.278153 
0.155327 -0.307884 0.277181 
0.161891 -0.307518 0.276227 
0.168466 -0.307128 0.275171 
0.174718 -0.306870 0.274001 
0.181217 -0.306456 0.272603 
0.187360 -0.306156 0.270947 
0.193061 -0.305946 0.268661 
0.198191 -0.305964 0.265619 
0.203207 -0.305970 0.262319 
0.208409 -0.305796 0.259265 
0.213461 -0.305790 0.256097 
0.217276 -0.306072 0.250943 
0.221494 -0.306270 0.246419 
0.225280 -0.306558 0.241223 
0.221992 0.006546 0.292331 
-0.003842 0.530106 -0.120559 
0.268079 0.030600 0.253427 
0.193301 0.061554 0.282305 
-0.441560 0.275712 0.044885 
0.241361 -0.309120 0.201113 
0.244877 -0.309108 0.195791 
-0.280628 -0.030162 -0.110287 
-0.371167 0.191814 -0.038155 
-0.160747 0.006384 -0.131149 
-0.298670 -0.030486 -0.106759 
-0.287419 0.115824 -0.082447 
0.354142 -0.033870 0.014819 
-0.096781 0.372456 -0.014599 
-0.453182 0.284928 0.170771 
-0.240326 0.219102 0.222755 
-0.251006 0.014154 -0.122749 
-0.244898 0.014202 -0.123319 
-0.256970 0.014040 -0.121621 
-0.262885 0.013782 -0.118981 
-0.295010 0.449616 -0.355867 
0.085006 0.084684 -0.122215 
-0.198085 0.350436 -0.019051 
-0.148838 0.023574 -0.128359 
-0.196784 0.023052 -0.124393 
-0.208789 0.023046 -0.125191 
0.257765 0.109746 0.217583 
-0.373561 0.365952 -0.063655 
-0.245569 0.303750 0.183341 
-0.261793 0.312540 0.202373 
-0.400946 0.358410 0.204515 
-0.320875 0.245028 0.285503 
-0.132614 0.212838 0.020651 
-0.249451 -0.327354 0.289505 
-0.242449 -0.326892 0.289283 
-0.235424 -0.326472 0.289259 
-0.229118 -0.326220 0.288251 
-0.222457 -0.325548 0.287135 
-0.216512 -0.325560 0.285221 
-0.210763 -0.325362 0.282953 
-0.204626 -0.325086 0.281147 
-0.198373 -0.324792 0.279779 
-0.191918 -0.324522 0.278345 
-0.186523 -0.324294 0.275807 
-0.179972 -0.323916 0.274769 
-0.174500 -0.323784 0.272357 
-0.415831 0.069498 -0.008053 
-0.450866 0.276774 0.236681 
-0.223177 0.252606 0.184157 
-0.226855 0.252684 0.189413 
-0.429158 0.121542 0.192263 
0.252977 0.109896 0.221189 
0.265456 0.152928 0.166943 
-0.411476 0.371574 0.155627 
-0.068630 -0.310302 0.332531 
-0.061208 -0.309762 0.332795 
-0.054188 -0.309318 0.332435 
-0.047582 -0.308922 0.331343 
-0.041719 -0.308730 0.329321 
-0.035935 -0.308544 0.327215 
-0.030086 -0.308340 0.325205 
-0.023996 -0.308046 0.323375 
-0.018175 -0.307860 0.321287 
-0.012698 -0.307746 0.318833 
-0.006686 -0.307452 0.316769 
-0.000908 -0.307248 0.314645 
0.004912 -0.307014 0.312629 
0.010756 -0.306828 0.310673 
0.016792 -0.306546 0.308657 
0.022643 -0.306342 0.306755 
0.028750 -0.306048 0.305003 
0.034540 -0.305838 0.302927 
0.040654 -0.305544 0.301121 
0.046498 -0.305328 0.299195 
0.052642 -0.305046 0.297491 
0.058744 -0.304776 0.295613 
0.064540 -0.304572 0.293615 
0.070708 -0.304278 0.291995 
0.076510 -0.304086 0.289853 
0.082906 -0.303750 0.288257 
0.089134 -0.303432 0.286925 
-0.220556 0.193494 0.208979 
-0.010544 0.468006 -0.088405 
-0.062078 0.458976 -0.057469 
-0.252476 0.321204 0.194843 
0.232756 0.006696 0.286703 
0.202462 0.165156 0.211439 
0.308716 -0.037626 -0.086605 
0.141695 -0.300450 0.278807 
0.148660 -0.300000 0.278201 
0.155261 -0.299604 0.277451 
0.162203 -0.299166 0.276701 
0.168772 -0.298788 0.275669 
0.175390 -0.298410 0.274919 
0.181877 -0.298044 0.273551 
0.188038 -0.297738 0.271949 
0.193823 -0.297546 0.269855 
0.198923 -0.297516 0.266771 
0.204100 -0.297408 0.263627 
0.208829 -0.297480 0.259967 
0.213886 -0.297462 0.256721 
0.218801 -0.297420 0.253349 
0.223300 -0.297498 0.249197 
0.227453 -0.297654 0.244607 
0.231256 -0.297918 0.239501 
0.234533 -0.298224 0.233669 
0.243665 0.046026 0.260273 
0.307265 0.022020 0.215177 
0.326524 0.028992 0.179717 
0.245723 -0.299874 0.207581 
0.248968 -0.300132 0.201761 
0.252575 -0.300690 0.196187 
0.256666 -0.300792 0.191585 
0.260933 -0.301068 0.187145 
-0.304603 -0.030534 -0.106495 
-0.032954 0.407088 -0.025711 
0.007517 0.494670 -0.114841 
0.208918 0.046140 0.283955 
-0.244718 0.219174 0.226889 
-0.312668 0.143442 0.297299 
-0.142760 0.006642 -0.133525 
-0.148736 0.006546 -0.132655 
-0.232718 0.005628 -0.124159 
-0.226700 0.005610 -0.123847 
-0.298957 0.012744 -0.104125 
-0.328747 0.011616 -0.090541 
-0.322915 0.011754 -0.092341 
-0.292807 0.012798 -0.105331 
-0.286777 0.012852 -0.105961 
-0.214754 0.014280 -0.123187 
-0.208753 0.014304 -0.123649 
-0.136820 0.023760 -0.130591 
-0.096710 0.458472 -0.093907 
-0.252398 0.312570 0.194921 
-0.256777 0.312612 0.199247 
-0.304556 0.312828 0.246197 
0.229877 0.157362 0.198239 
-0.082759 0.397998 0.007631 
-0.164336 0.353238 0.036719 
0.280079 0.131340 0.172517 
-0.249175 -0.318942 0.290549 
-0.241706 -0.318396 0.290813 
-0.235051 -0.317994 0.290111 
-0.229178 -0.317754 0.288371 
-0.223375 -0.317556 0.286241 
-0.217705 -0.317394 0.283721 
-0.211946 -0.317202 0.281531 
-0.206174 -0.317004 0.279341 
-0.199657 -0.316668 0.278045 
-0.193453 -0.316374 0.276575 
-0.187364 -0.316122 0.274697 
-0.181568 -0.315888 0.272609 
-0.175730 -0.315648 0.270719 
-0.169994 -0.315468 0.268451 
-0.341390 0.227262 -0.045667 
-0.070507 0.494460 -0.058837 
-0.047293 0.503388 -0.077959 
-0.008840 0.503424 -0.106837 
-0.110036 0.441150 -0.021385 
-0.134486 0.449958 0.006497 
0.091637 0.048204 0.298775 
-0.069086 -0.302094 0.331577 
-0.061748 -0.301494 0.332111 
-0.054314 -0.300966 0.332105 
-0.047996 -0.300684 0.330953 
-0.041858 -0.300372 0.329231 
-0.036044 -0.300186 0.327107 
-0.029912 -0.299904 0.325349 
-0.024085 -0.299688 0.323327 
-0.018266 -0.299472 0.321239 
-0.012463 -0.299268 0.319091 
-0.006703 -0.299058 0.316931 
-0.000961 -0.298872 0.314639 
0.004763 -0.298698 0.312377 
0.010606 -0.298446 0.310397 
0.016373 -0.298224 0.308255 
0.022510 -0.297954 0.306557 
0.028642 -0.297678 0.304889 
0.034468 -0.297492 0.302831 
0.040558 -0.297198 0.301001 
0.046330 -0.296976 0.298871 
0.052132 -0.296766 0.296711 
0.058252 -0.296526 0.294971 
0.064060 -0.296286 0.292997 
0.069868 -0.296100 0.290951 
0.075893 -0.295890 0.288875 
-0.285457 0.399756 -0.187861 
-0.249229 0.185412 0.241373 
-0.240415 0.185052 0.233081 
-0.153205 0.362046 0.031853 
-0.127909 0.467868 0.005717 
-0.253615 0.193980 0.245573 
-0.232070 0.185250 0.224051 
-0.089666 0.494526 -0.033673 
-0.298597 0.114714 0.232235 
0.262019 0.125706 0.202595 
0.147754 -0.291912 0.276893 
0.154721 -0.291450 0.276383 
0.161302 -0.291078 0.275453 
0.168244 -0.290628 0.274793 
0.174874 -0.290232 0.274169 
0.181756 -0.289830 0.273269 
0.187907 -0.289530 0.271775 
0.193420 -0.289374 0.269393 
0.199084 -0.289188 0.266987 
0.204137 -0.289158 0.263795 
0.209134 -0.289128 0.260489 
0.214138 -0.289080 0.257195 
0.219124 -0.289068 0.253817 
0.224188 -0.288972 0.250613 
0.228617 -0.288990 0.246701 
0.232756 -0.289278 0.241787 
0.236207 -0.289470 0.236351 
0.239704 -0.289818 0.230729 
0.242849 -0.290040 0.224843 
0.246437 -0.290502 0.219257 
0.249635 -0.290730 0.213419 
0.252724 -0.291246 0.207161 
0.256229 -0.291312 0.201833 
0.259858 -0.291840 0.196301 
0.263692 -0.292170 0.191249 
0.268048 -0.292062 0.187073 
-0.262274 0.236064 0.233147 
-0.306637 0.123678 0.241823 
-0.382513 0.390780 -0.099799 
-0.324782 0.245160 0.290327 
0.356416 -0.008388 0.092627 
-0.299192 0.106722 -0.078955 
-0.353041 0.070950 -0.065743 
-0.323281 0.131538 -0.053971 
-0.114583 0.449472 -0.086839 
-0.112790 0.007038 -0.136789 
-0.106831 0.007140 -0.137587 
-0.118784 0.006960 -0.136081 
-0.124760 0.006882 -0.135853 
-0.220718 0.005568 -0.122749 
-0.238753 0.005634 -0.124597 
-0.244778 0.005616 -0.124507 
-0.202778 0.014334 -0.123859 
-0.226759 0.014196 -0.123037 
-0.457411 0.125976 0.116891 
-0.263065 0.022470 -0.118543 
-0.166826 0.014904 -0.129139 
0.325709 0.013248 0.189137 
-0.308570 0.312918 0.250913 
-0.200215 0.209934 0.174431 
-0.243445 0.235998 0.218249 
-0.047047 0.494478 -0.077719 
-0.051895 0.494478 -0.074209 
-0.032240 0.494496 -0.087979 
-0.224317 0.176382 0.213935 
0.155854 0.188226 0.207143 
-0.261278 0.347130 0.203303 
-0.236401 -0.309762 0.288479 
-0.229843 -0.309510 0.287093 
-0.223981 -0.309246 0.285251 
-0.218569 -0.309090 0.282629 
-0.213176 -0.308982 0.279887 
-0.207518 -0.308832 0.277445 
-0.201368 -0.308640 0.275615 
-0.195085 -0.308220 0.274433 
-0.188630 -0.307932 0.273017 
-0.183181 -0.307752 0.270557 
-0.177067 -0.307518 0.268727 
0.351431 0.025056 0.068657 
0.344650 0.024612 0.140573 
-0.088549 0.441264 -0.032515 
-0.042637 0.503388 -0.081829 
-0.003980 0.503382 -0.110287 
-0.120068 0.441030 -0.014797 
-0.175195 0.388620 0.042851 
-0.229190 0.202164 0.217613 
-0.209210 0.227154 0.183263 
-0.063049 -0.293418 0.329963 
-0.055615 -0.292812 0.330443 
-0.048650 -0.292458 0.329651 
-0.042428 -0.292110 0.328439 
-0.036512 -0.291852 0.326537 
-0.030410 -0.291612 0.324677 
-0.024595 -0.291396 0.322571 
-0.018823 -0.291204 0.320393 
-0.012985 -0.290970 0.318347 
-0.007574 -0.290796 0.315743 
-0.199970 0.226698 0.164945 
-0.194810 0.226272 0.151259 
0.317392 -0.045288 -0.074917 
-0.437131 0.063138 0.147905 
-0.205016 0.235248 0.168233 
-0.207907 0.235392 0.174713 
-0.253381 0.303822 0.193259 
-0.228685 0.370554 0.080993 
0.320410 0.005634 0.202769 
-0.314198 0.169560 0.316373 
-0.011023 0.415896 -0.046585 
-0.059336 0.450270 -0.053497 
0.230549 0.141258 0.209801 
0.242939 0.006732 0.280283 
-0.225805 0.362124 0.084989 
-0.074293 0.467742 -0.054001 
-0.106459 0.467676 -0.026749 
-0.116857 0.467814 -0.009925 
-0.028460 0.565746 -0.092089 
0.227428 0.006666 0.289637 
-0.475249 0.170490 0.243395 
-0.078836 0.494382 -0.049891 
-0.079807 0.485532 -0.051271 
-0.015938 0.467952 -0.085663 
0.146993 -0.283890 0.276203 
0.153154 -0.283596 0.274553 
0.159653 -0.283176 0.273335 
0.166222 -0.282792 0.272327 
0.173153 -0.282324 0.271673 
0.180046 -0.281892 0.270941 
0.186580 -0.281544 0.269843 
0.192478 -0.281304 0.268031 
0.198172 -0.281136 0.265685 
0.203494 -0.281046 0.262823 
0.208816 -0.280926 0.259997 
0.213701 -0.280890 0.256619 
0.218518 -0.280944 0.253031 
0.223450 -0.281034 0.249779 
0.228221 -0.280950 0.245879 
0.232919 -0.280926 0.242141 
0.237215 -0.281100 0.237737 
0.241372 -0.281262 0.233165 
0.245422 -0.281382 0.228503 
0.249449 -0.281484 0.223841 
0.253018 -0.281940 0.218267 
0.256415 -0.282294 0.212525 
0.259768 -0.282270 0.207107 
0.262877 -0.282792 0.200861 
0.266716 -0.283104 0.195791 
0.270904 -0.283296 0.191303 
-0.232622 0.227538 0.212801 
-0.230036 0.210696 0.216347 
-0.316849 0.278868 0.270611 
-0.313177 0.278790 0.265349 
-0.111445 0.476664 -0.012667 
0.249124 0.046218 0.257597 
-0.299108 0.072906 -0.095623 
-0.126475 0.422556 -0.076243 
0.332092 -0.279600 0.185297 
-0.340658 -0.031740 -0.092023 
-0.352604 -0.032154 -0.087271 
-0.268573 -0.029622 -0.117043 
-0.416018 -0.090090 0.093407 
-0.293636 0.209760 -0.043645 
-0.226586 -0.029112 -0.122101 
-0.347222 0.071268 -0.068335 
-0.100850 0.007272 -0.139093 
-0.094777 0.007470 -0.140701 
-0.220748 0.014160 -0.122383 
-0.196784 0.014364 -0.123799 
-0.172820 0.014814 -0.128323 
-0.310628 0.003690 -0.100261 
0.286703 0.006822 0.248609 
0.196630 0.164928 0.213467 
-0.223645 0.370644 0.077777 
-0.309956 0.203064 0.301439 
-0.318458 0.203226 0.310235 
-0.042158 0.494466 -0.081217 
-0.027241 0.494526 -0.091303 
-0.138115 0.450000 0.011849 
-0.193484 0.379524 0.058187 
0.012316 0.529992 -0.139213 
0.076942 0.081240 0.272003 
-0.034351 0.476736 -0.080617 
-0.225758 -0.301134 0.282725 
-0.219523 -0.300852 0.281225 
-0.214177 -0.300768 0.278387 
-0.208771 -0.300618 0.275693 
-0.259904 0.176832 0.246845 
-0.291931 0.114924 0.231341 
-0.248594 0.346770 0.179531 
-0.251599 0.346842 0.185555 
-0.177979 -0.299292 0.267347 
-0.251377 0.278130 0.195983 
-0.483038 0.178080 0.129377 
-0.094021 0.441120 -0.029929 
-0.037951 0.503424 -0.085627 
-0.342835 0.219846 0.317339 
0.000832 0.503310 -0.113839 
-0.133196 0.441066 -0.002089 
-0.166472 0.388362 0.044531 
-0.153949 0.388752 0.041807 
0.354814 -0.000156 0.026801 
-0.175988 0.370986 0.051887 
-0.206576 0.184296 0.186359 
-0.043747 -0.283962 0.326543 
-0.037519 -0.283662 0.325043 
-0.031615 -0.283452 0.323057 
-0.025880 -0.283218 0.320807 
0.318599 0.068904 0.168209 
-0.307748 0.304326 0.252119 
-0.474134 0.170478 0.249437 
-0.230060 0.167880 0.216053 
0.358180 -0.016704 0.074675 
-0.453397 0.120648 0.087719 
-0.274129 0.159204 0.247145 
-0.170779 0.379776 0.048965 
0.344830 -0.026112 0.164603 
-0.262628 0.303858 0.201137 
0.329794 0.031950 -0.021079 
0.216605 0.038310 0.284489 
0.006779 0.538848 -0.136579 
0.316535 0.099630 0.116723 
-0.238880 0.317346 0.160181 
-0.216547 0.280662 0.028163 
-0.229148 0.362160 0.090755 
-0.048248 0.467808 -0.069103 
-0.013280 0.556752 -0.112789 
-0.434077 0.054192 0.028163 
-0.241982 0.150576 0.219701 
-0.024986 0.565170 -0.096727 
-0.115118 0.476706 -0.007393 
-0.335281 0.262128 0.296663 
-0.272150 0.347268 0.219491 
-0.244808 0.193896 0.237311 
0.146446 -0.274200 0.285773 
0.149926 -0.274812 0.280217 
0.154366 -0.275202 0.276299 
0.159802 -0.275124 0.273761 
0.165838 -0.274722 0.271889 
0.171994 -0.274380 0.270227 
0.178504 -0.273960 0.269045 
0.184630 -0.273660 0.267287 
0.190709 -0.273366 0.265463 
0.196433 -0.273216 0.263189 
0.201815 -0.273102 0.260453 
0.207629 -0.272892 0.258377 
0.212687 -0.272844 0.255149 
0.217661 -0.272826 0.251789 
0.222557 -0.272814 0.248309 
0.227440 -0.272784 0.244811 
0.232421 -0.272766 0.241493 
0.237509 -0.272742 0.238283 
0.242290 -0.272700 0.234647 
0.246886 -0.272772 0.230759 
0.251356 -0.272772 0.226685 
0.255580 -0.272964 0.222197 
0.259324 -0.273198 0.217043 
0.262702 -0.273540 0.211325 
0.265768 -0.274038 0.205055 
0.269392 -0.274176 0.199811 
0.273557 -0.274338 0.195269 
0.278507 -0.274320 0.191903 
-0.250381 0.176814 0.239597 
-0.270391 0.261024 0.221411 
-0.275773 0.260958 0.224147 
-0.279595 0.185154 0.260657 
0.205582 0.085218 0.257951 
0.324832 -0.270648 0.196007 
0.331427 -0.270342 0.195089 
0.336875 -0.270378 0.192485 
0.341854 -0.270336 0.189029 
0.346738 -0.270192 0.185501 
0.351299 -0.270240 0.181517 
0.355864 -0.270336 0.177575 
0.360491 -0.270486 0.173663 
0.365362 -0.270336 0.170183 
0.369947 -0.270438 0.166235 
0.374104 -0.270582 0.161663 
0.377950 -0.270930 0.156587 
0.381784 -0.271278 0.151481 
0.386597 -0.270720 0.147515 
0.389477 -0.271422 0.141581 
0.392482 -0.271896 0.135257 
0.395296 -0.272154 0.128831 
-0.127909 0.449886 -0.005179 
-0.425365 0.095226 0.141863 
0.039118 0.063228 0.270149 
-0.241663 0.346602 0.167927 
-0.327722 0.203130 0.317987 
-0.006967 0.459276 -0.083233 
-0.022243 0.494550 -0.094627 
0.210580 0.085326 0.254663 
0.014356 0.485928 -0.115513 
-0.188858 0.379614 0.054467 
-0.034736 0.459120 -0.070669 
-0.293606 0.286686 0.230057 
0.214798 0.085308 0.250103 
-0.227978 -0.293016 0.279659 
-0.222205 -0.292956 0.277331 
-0.216446 -0.292842 0.275069 
-0.210571 -0.292530 0.273131 
0.219323 0.085296 0.246173 
-0.051319 0.458994 -0.063025 
-0.248756 0.338028 0.179501 
-0.269401 0.185250 0.254219 
-0.179383 -0.291192 0.265415 
0.231514 0.085518 0.242651 
-0.296714 0.329934 0.236561 
-0.198938 0.388254 0.060959 
-0.099446 0.441042 -0.027229 
-0.018428 0.503370 -0.099577 
0.018071 0.503562 -0.131221 
0.014032 0.503358 -0.126289 
-0.206174 0.353334 0.071183 
-0.287935 0.409128 -0.217933 
-0.086035 0.389076 0.002813 
0.252820 0.030444 0.262937 
-0.296173 0.321366 0.237329 
0.237263 0.085638 0.240377 
0.242926 0.085638 0.238007 
0.248326 0.085746 0.235415 
-0.028010 -0.275166 0.317729 
0.253426 0.085896 0.232289 
0.258358 0.085926 0.228911 
-0.296030 0.312762 0.237461 
-0.279716 0.355734 0.219113 
-0.248066 0.355422 0.180185 
-0.430627 0.062160 0.022073 
-0.201620 0.353280 0.067229 
-0.197120 0.353244 0.063191 
-0.079826 0.476610 -0.051367 
0.012239 0.433806 -0.076117 
0.332435 0.032232 -0.015247 
-0.118862 0.476760 -0.002155 
-0.258014 0.303858 0.197213 
-0.024878 0.547908 -0.098065 
-0.001862 0.547800 -0.127933 
0.005620 0.468156 -0.096565 
-0.021307 0.467940 -0.082885 
-0.034982 0.556614 -0.080731 
-0.009776 0.556680 -0.118135 
0.005524 0.556134 -0.148639 
-0.120410 0.467784 -0.004561 
-0.055123 0.547836 -0.057253 
0.309761 0.061320 0.187193 
0.263267 0.085920 0.225485 
0.267749 0.085866 0.221465 
0.272267 0.085818 0.217487 
0.149920 -0.265758 0.290903 
0.153988 -0.265806 0.286235 
0.159221 -0.265560 0.283283 
0.164237 -0.265584 0.279989 
0.169198 -0.265566 0.276593 
0.173902 -0.265758 0.272951 
0.179266 -0.265650 0.270179 
0.184330 -0.265626 0.266999 
0.189676 -0.265446 0.264167 
0.194968 -0.265302 0.261221 
0.200333 -0.265182 0.258407 
0.206008 -0.264948 0.256097 
0.211492 -0.264870 0.253493 
0.216796 -0.264762 0.250601 
0.221752 -0.264732 0.247199 
0.226912 -0.264612 0.244091 
0.232342 -0.264516 0.241445 
0.237772 -0.264420 0.238739 
0.243005 -0.264276 0.235751 
0.247996 -0.264264 0.232427 
0.252869 -0.264198 0.228929 
0.257464 -0.264264 0.225035 
0.261683 -0.264438 0.220547 
0.265373 -0.264654 0.215351 
0.268780 -0.265002 0.209651 
0.272182 -0.265362 0.203951 
0.276022 -0.265686 0.198941 
0.280798 -0.265500 0.195317 
0.276544 0.085824 0.213053 
-0.299882 0.219306 0.273821 
-0.296347 0.219126 0.268469 
-0.292807 0.219162 0.262775 
0.280384 0.085770 0.207989 
0.284434 0.085656 0.203363 
0.335062 -0.261168 0.199985 
0.340493 -0.261282 0.197813 
0.345796 -0.261144 0.194789 
0.350794 -0.261174 0.191513 
0.355493 -0.261354 0.187739 
0.360316 -0.261180 0.184187 
0.364834 -0.261144 0.180173 
0.369437 -0.261210 0.176255 
0.373799 -0.261504 0.171941 
0.378262 -0.261426 0.167897 
0.382468 -0.261528 0.163391 
0.386537 -0.261504 0.158771 
0.390394 -0.261804 0.153731 
0.394474 -0.261894 0.149117 
0.397673 -0.262548 0.142943 
0.401183 -0.262536 0.137615 
0.321701 0.021432 0.194105 
-0.232519 0.193728 0.223427 
-0.258589 0.338370 0.196367 
-0.029066 0.458928 -0.073111 
0.190402 0.069318 0.278081 
0.246928 0.069894 0.243941 
0.129191 0.106812 0.252617 
-0.075152 0.476646 -0.055165 
-0.017240 0.494598 -0.097927 
-0.167401 0.414528 0.032657 
-0.176540 0.379728 0.051167 
-0.182761 0.379626 0.052721 
0.177118 0.005532 0.311555 
0.288310 0.085614 0.198293 
-0.230666 -0.285246 0.275597 
0.292306 0.085464 0.193601 
0.296374 0.085332 0.188981 
0.300269 0.085314 0.183941 
0.218158 0.149208 0.212987 
-0.247975 0.286674 0.190541 
-0.288752 0.252570 0.237047 
-0.271381 0.278040 0.209417 
0.304235 0.085326 0.178949 
0.308218 0.085182 0.174269 
-0.253664 0.185418 0.245447 
-0.194371 0.388194 0.056855 
-0.104791 0.441078 -0.024385 
-0.115100 0.441060 -0.018175 
0.005260 0.503502 -0.118063 
0.337673 0.041046 0.002777 
-0.350437 0.228156 0.316931 
0.311494 0.084984 0.168497 
-0.004423 0.433194 -0.058159 
-0.081140 0.389178 -0.000703 
-0.214610 0.218958 0.196457 
-0.318697 0.321486 0.257531 
-0.112958 0.371028 0.005621 
-0.091700 0.485574 -0.036745 
-0.311906 0.211386 0.298733 
0.327406 0.082986 0.032669 
-0.242156 0.312270 0.178295 
-0.149540 0.379854 0.037547 
-0.327338 0.125832 0.287081 
-0.027182 0.415962 -0.027859 
-0.032144 0.415920 -0.024475 
-0.036859 0.415710 -0.020785 
-0.192403 0.353304 0.059501 
-0.172285 0.405732 0.036155 
-0.036955 0.539070 -0.083671 
-0.013166 0.538974 -0.112759 
0.010355 0.538986 -0.142261 
-0.321283 0.313098 0.264287 
-0.021577 0.547614 -0.102931 
0.262192 0.109662 0.213503 
0.000262 0.468132 -0.093811 
-0.026683 0.467928 -0.080119 
-0.053605 0.467808 -0.066295 
-0.079304 0.467706 -0.050677 
-0.110191 0.467694 -0.021553 
-0.148346 0.362142 0.028325 
-0.143755 0.362070 0.024383 
-0.046376 0.408036 -0.013009 
0.328876 0.083040 0.050675 
0.143656 -0.256944 0.303197 
0.148259 -0.257016 0.299189 
0.152710 -0.256950 0.295049 
0.157889 -0.256650 0.292037 
0.162484 -0.256752 0.288119 
0.167423 -0.256722 0.284741 
0.172426 -0.256734 0.281405 
0.177335 -0.256662 0.277967 
0.182057 -0.256908 0.274199 
0.187211 -0.256566 0.271151 
0.191974 -0.256806 0.267515 
0.196582 -0.256872 0.263645 
0.201202 -0.256926 0.259781 
0.206548 -0.256506 0.256883 
0.211906 -0.256398 0.254111 
0.217180 -0.256512 0.251219 
0.222407 -0.256344 0.248225 
0.227351 -0.256314 0.244829 
0.232666 -0.256188 0.241967 
0.238378 -0.255966 0.239675 
0.243737 -0.255852 0.236891 
0.248758 -0.255852 0.233633 
0.254057 -0.255714 0.230717 
0.259072 -0.255714 0.227441 
0.263674 -0.255816 0.223511 
0.267617 -0.255834 0.218735 
0.271312 -0.256032 0.213569 
0.274913 -0.256500 0.208019 
0.279047 -0.256638 0.203453 
0.316343 0.013830 0.207287 
-0.274693 0.185172 0.257183 
-0.281953 0.210702 0.257363 
-0.276980 0.210738 0.254015 
-0.271693 0.210738 0.251099 
-0.308264 0.194634 0.303947 
0.238036 0.006732 0.283757 
0.123538 0.106758 0.255155 
0.342707 -0.252726 0.201083 
0.348455 -0.252570 0.198839 
0.353735 -0.252438 0.195875 
0.358727 -0.252444 0.192581 
0.363371 -0.252546 0.188723 
0.368152 -0.252360 0.185129 
0.372508 -0.252600 0.180803 
0.376960 -0.252528 0.176729 
0.381202 -0.252678 0.172283 
0.385691 -0.252636 0.168245 
0.389711 -0.252984 0.163385 
0.393797 -0.252978 0.158783 
0.397720 -0.253242 0.153815 
0.401764 -0.253212 0.149189 
0.405382 -0.253686 0.143657 
0.409246 -0.253578 0.138899 
-0.031279 0.400386 -0.043039 
0.141160 0.158508 -0.084589 
-0.039139 0.547884 -0.076111 
0.247426 0.054060 0.255197 
0.241858 0.054096 0.257693 
0.355709 0.008406 0.062651 
-0.013790 0.450426 -0.072019 
-0.252494 0.236028 0.226247 
-0.002114 0.494526 -0.107677 
-0.016862 0.530058 -0.107551 
0.330137 0.074502 0.104615 
0.267406 0.006846 0.262931 
0.248296 0.109740 0.224921 
-0.235501 -0.278160 0.268319 
0.346625 -0.009234 -0.009133 
0.306143 0.115848 0.032687 
0.209506 0.141042 0.221513 
0.203896 0.141162 0.224123 
-0.219043 0.327078 0.082847 
-0.243829 0.286632 0.185921 
-0.240212 0.286542 0.180599 
-0.309146 0.261534 0.260345 
-0.262729 0.219270 0.242999 
-0.317984 0.296076 0.268865 
-0.291230 0.330030 0.234011 
-0.190423 0.388128 0.052043 
-0.186157 0.388152 0.047729 
-0.124922 0.441048 -0.011305 
0.021623 0.503388 -0.135463 
0.343583 0.016212 0.152669 
-0.476882 0.210402 0.093221 
-0.044186 0.539064 -0.073063 
-0.073027 0.432534 -0.031135 
-0.137899 0.432192 0.001541 
-0.125858 0.397794 0.029747 
-0.120122 0.397812 0.027413 
-0.013724 0.503454 -0.103345 
-0.067255 0.432432 -0.033409 
-0.168182 0.405654 0.031367 
-0.141014 0.406746 0.018647 
-0.081644 0.406818 0.009311 
-0.209006 0.262308 0.034205 
-0.359203 0.423762 -0.208099 
0.015994 0.529986 -0.144463 
-0.139165 0.414918 0.010385 
-0.171277 0.414552 0.037667 
-0.059365 0.538830 -0.052903 
-0.033146 0.539040 -0.088831 
-0.008996 0.538980 -0.117319 
0.352535 0.016770 0.086681 
-0.046676 0.547782 -0.066103 
-0.017306 0.547896 -0.108127 
-0.214189 0.280704 0.034199 
-0.089761 0.416070 -0.002179 
-0.055321 0.538896 -0.057535 
-0.196400 0.362100 0.064373 
-0.186866 0.362076 0.057059 
-0.167540 0.362010 0.042767 
-0.264536 0.347160 0.209507 
-0.267949 0.347286 0.214979 
0.275351 0.038310 0.242963 
-0.109807 0.485628 -0.010147 
0.146591 -0.247752 0.307505 
0.151852 -0.247554 0.304583 
0.156509 -0.247680 0.300719 
0.161086 -0.247788 0.296789 
0.165634 -0.247830 0.292805 
0.170225 -0.247926 0.288881 
0.175162 -0.247902 0.285491 
0.180467 -0.247728 0.282629 
0.185585 -0.247938 0.279551 
0.191213 -0.247692 0.277235 
0.196822 -0.247794 0.274535 
0.201880 -0.247242 0.271427 
0.206315 -0.247152 0.267341 
0.210160 -0.247512 0.262289 
0.214750 -0.247620 0.258353 
0.219929 -0.247350 0.255317 
0.224915 -0.247356 0.251981 
0.229174 -0.247590 0.247541 
0.233674 -0.247614 0.243467 
0.239380 -0.247392 0.241103 
0.245056 -0.247128 0.238811 
0.250120 -0.247164 0.235613 
0.255424 -0.247026 0.232799 
0.260890 -0.246990 0.230189 
0.265882 -0.246978 0.226865 
0.270077 -0.247152 0.222347 
0.273796 -0.247380 0.217169 
0.277582 -0.247614 0.212039 
0.281453 -0.247926 0.206999 
0.285845 -0.247878 0.202853 
-0.287618 0.159468 0.259637 
0.227824 0.069774 0.258551 
-0.301190 0.194346 0.293261 
-0.304585 0.194520 0.298685 
-0.294061 0.185610 0.282275 
-0.479809 0.202302 0.105233 
-0.173678 0.353166 0.044309 
0.220210 0.141162 0.215951 
0.350165 -0.243972 0.201251 
0.355900 -0.243834 0.199085 
0.360911 -0.243828 0.195809 
0.365806 -0.243768 0.192359 
0.370474 -0.243870 0.188561 
0.375016 -0.243888 0.184583 
0.379438 -0.243810 0.180455 
0.383896 -0.243756 0.176399 
0.388337 -0.244032 0.172163 
0.392614 -0.244206 0.167759 
0.396839 -0.244338 0.163283 
0.400757 -0.244572 0.158279 
0.404878 -0.244608 0.153719 
0.408910 -0.244584 0.149075 
0.412811 -0.244806 0.144089 
0.416656 -0.244992 0.139037 
-0.311102 0.134376 0.278579 
0.336544 0.041094 0.146621 
-0.006445 0.556746 -0.124243 
0.009760 0.485844 -0.111607 
0.324256 0.091458 0.050951 
-0.390973 0.101022 0.217391 
-0.482954 0.178074 0.123383 
-0.276343 0.141468 0.233057 
-0.211634 0.335820 0.073715 
0.016366 0.494586 -0.122977 
-0.307471 0.492612 -0.355291 
-0.021391 0.407190 -0.040483 
-0.098359 0.467694 -0.036097 
-0.434366 0.021636 0.016187 
-0.250129 0.202398 0.240119 
-0.327343 0.236712 0.297371 
0.232217 0.069552 0.254309 
-0.295292 0.456198 -0.253861 
-0.104798 0.380232 0.007163 
0.290585 0.030288 0.233423 
0.286169 0.030390 0.237485 
0.275938 0.014772 0.254183 
-0.036668 0.450126 -0.063001 
-0.359996 0.253470 0.313721 
-0.322316 0.296052 0.273317 
-0.301796 0.329832 0.239747 
-0.306644 0.329868 0.243317 
-0.180752 0.388314 0.045095 
-0.136724 0.441090 0.003311 
-0.441062 0.111930 0.087725 
0.345598 0.016284 0.146609 
-0.323047 0.203214 0.314195 
-0.056090 0.512256 -0.069583 
0.015970 0.512268 -0.134035 
-0.028700 0.407274 -0.030127 
-0.320084 0.143802 0.307631 
-0.049885 0.424110 -0.029245 
-0.090973 0.423756 -0.014923 
-0.141950 0.423366 0.006221 
-0.320576 0.279000 0.275549 
-0.136724 0.423294 0.003221 
-0.006974 0.521226 -0.114583 
-0.012506 0.530094 -0.111949 
0.018982 0.530046 -0.150817 
-0.144619 0.414642 0.012911 
-0.155419 0.353316 0.028535 
-0.044426 0.424434 -0.031783 
-0.154508 0.379872 0.040925 
-0.013916 0.410610 -0.057811 
0.346175 0.041640 0.080645 
-0.042764 0.547764 -0.070885 
-0.129097 0.502764 -0.058189 
-0.453469 0.284772 0.158795 
-0.210956 0.344562 0.074609 
-0.123212 0.432192 -0.008827 
0.175624 0.180720 0.204467 
0.178222 0.010866 -0.142927 
0.342923 0.024660 0.146699 
0.355918 -0.016860 0.104663 
0.142031 0.139518 0.239669 
-0.345710 0.287520 0.292313 
0.144700 -0.238800 0.315425 
0.150023 -0.238638 0.312563 
0.154702 -0.238824 0.308807 
0.159262 -0.238866 0.304829 
0.163805 -0.238920 0.300833 
0.168287 -0.238920 0.296777 
0.172823 -0.238980 0.292793 
0.177869 -0.239058 0.289565 
0.183652 -0.238884 0.287411 
0.189820 -0.238632 0.285833 
0.196037 -0.238440 0.284327 
0.202073 -0.238044 0.282647 
0.206681 -0.238050 0.278537 
0.210736 -0.238104 0.273869 
0.214456 -0.238284 0.268673 
0.219011 -0.238362 0.264713 
0.223222 -0.238560 0.260201 
0.227609 -0.238482 0.256037 
0.231322 -0.238668 0.250787 
0.236320 -0.238686 0.247463 
0.241901 -0.238770 0.244985 
0.247378 -0.238338 0.242387 
0.251819 -0.238266 0.238145 
0.257369 -0.238350 0.235595 
0.263104 -0.238140 0.233399 
0.268126 -0.238176 0.230231 
0.272344 -0.238362 0.225755 
0.276172 -0.238644 0.220685 
0.280006 -0.238920 0.215603 
0.284236 -0.238794 0.211361 
0.288191 -0.239136 0.206357 
0.292300 -0.239256 0.201701 
0.277606 0.125502 0.182699 
-0.303254 0.287058 0.247745 
-0.300356 0.185898 0.294545 
-0.297223 0.185754 0.288617 
-0.450763 0.276492 0.158849 
-0.247046 0.168192 0.233777 
-0.235586 0.335874 0.148133 
-0.415849 0.077718 -0.002095 
0.356909 -0.235416 0.200525 
0.362639 -0.235278 0.198353 
0.367631 -0.235266 0.195101 
0.372304 -0.235356 0.191303 
0.376871 -0.235386 0.187343 
0.381545 -0.235182 0.183599 
0.386243 -0.235278 0.179825 
0.391187 -0.235242 0.176441 
0.395855 -0.235356 0.172619 
0.400391 -0.235362 0.168635 
0.404566 -0.235446 0.164129 
0.408430 -0.235644 0.159113 
0.412354 -0.235878 0.154151 
0.416351 -0.235830 0.149489 
0.419933 -0.236160 0.143975 
0.423400 -0.236400 0.138365 
0.309346 0.030600 -0.051085 
-0.237062 0.227592 0.216887 
-0.013322 0.476736 -0.092407 
-0.241544 0.227640 0.220943 
0.296411 0.069552 0.199607 
-0.314054 0.203130 0.306083 
-0.211022 0.307992 0.040079 
0.041993 0.055740 0.274751 
-0.228680 0.176472 0.218027 
-0.473263 0.161466 0.075521 
0.029693 0.467052 -0.122749 
-0.175489 0.335748 0.031085 
-0.057116 0.390186 -0.023395 
-0.425971 0.118806 0.027251 
-0.196436 0.192570 0.169277 
-0.225679 -0.262008 0.240929 
-0.089024 0.476604 -0.043627 
-0.099788 0.380184 0.003857 
-0.095288 0.380244 -0.000199 
-0.436118 0.062418 0.040229 
-0.311408 0.105714 0.234467 
-0.354530 0.253602 0.311147 
-0.349177 0.253608 0.308261 
0.172114 0.005430 0.314825 
0.222748 0.069588 0.261737 
-0.328249 0.134910 0.306107 
-0.159764 0.388554 0.043793 
-0.211105 0.353358 0.074585 
0.347764 0.016410 0.134615 
-0.090607 0.512256 -0.024367 
-0.051764 0.512292 -0.073813 
0.003364 0.512310 -0.120733 
0.313222 0.039396 -0.045145 
-0.082597 0.494580 -0.044437 
-0.051062 0.521232 -0.072667 
-0.002516 0.521220 -0.118645 
0.298445 0.038124 -0.063319 
-0.146522 0.423324 0.010169 
-0.060661 0.530112 -0.054853 
-0.033847 0.530112 -0.089995 
-0.008096 0.530070 -0.116071 
-0.047341 0.415452 -0.014929 
0.000418 0.530028 -0.124783 
-0.187658 0.353220 0.055781 
-0.142448 0.353502 0.015707 
-0.069326 0.467748 -0.057379 
0.009695 0.503460 -0.122149 
-0.324097 0.169530 0.322931 
-0.017341 0.538986 -0.108193 
-0.025147 0.404382 -0.050827 
-0.202315 0.344442 0.066041 
-0.287048 0.418626 -0.211879 
-0.229813 0.269304 0.174557 
0.316936 0.029592 0.197555 
-0.452336 0.023046 0.100205 
-0.185959 0.459600 -0.033769 
-0.201385 0.362070 0.067703 
0.358894 -0.033540 0.044783 
-0.084637 0.000018 -0.163915 
0.315070 0.082182 0.002711 
0.152380 -0.229944 0.316097 
0.156964 -0.230016 0.312185 
0.161471 -0.230058 0.308165 
0.166042 -0.230124 0.304217 
0.170290 -0.230328 0.299777 
0.175222 -0.230286 0.296351 
0.180881 -0.229986 0.293987 
0.187090 -0.229740 0.292421 
0.193337 -0.229716 0.291125 
0.200044 -0.229122 0.290093 
0.205180 -0.229314 0.287045 
0.209854 -0.229434 0.283223 
0.214180 -0.229254 0.278981 
0.218158 -0.229182 0.274283 
0.222167 -0.229488 0.269411 
0.226211 -0.229542 0.264725 
0.230266 -0.229602 0.260027 
0.234484 -0.229788 0.255503 
0.239662 -0.229938 0.252389 
0.244985 -0.229818 0.249581 
0.249875 -0.229716 0.246089 
0.254741 -0.229620 0.242573 
0.260195 -0.229530 0.239861 
0.265510 -0.229452 0.237095 
0.270460 -0.229422 0.233711 
0.274702 -0.229638 0.229277 
0.278782 -0.229746 0.224645 
0.282670 -0.230052 0.219611 
0.286691 -0.230112 0.214937 
0.290519 -0.230400 0.209849 
0.294353 -0.230670 0.204791 
0.298505 -0.230796 0.200231 
0.207934 0.165372 0.208853 
0.227147 0.038334 0.278615 
0.343697 0.049872 0.050693 
0.344086 -0.009468 -0.015043 
-0.256028 0.168210 0.241835 
-0.248167 0.159522 0.232037 
0.357184 -0.033666 0.032849 
-0.240829 0.317268 0.172115 
0.363340 -0.226992 0.199415 
0.368692 -0.226884 0.196679 
0.373708 -0.226890 0.193427 
0.378490 -0.226782 0.189779 
0.383350 -0.226704 0.186257 
0.388445 -0.226722 0.183083 
0.393490 -0.226746 0.179837 
0.398410 -0.226710 0.176435 
0.402856 -0.226968 0.172211 
0.407248 -0.226872 0.168071 
0.411083 -0.227040 0.163025 
0.414857 -0.227190 0.157931 
0.418780 -0.227388 0.152951 
0.422500 -0.227508 0.147815 
0.426082 -0.227556 0.142619 
0.429568 -0.228090 0.135659 
-0.109742 0.415416 0.000323 
-0.149983 0.414588 0.015701 
-0.282458 0.141090 0.234815 
-0.331333 0.312978 0.270905 
0.219832 0.046164 0.278573 
-0.254851 0.338298 0.191483 
0.210442 0.157326 0.212453 
-0.466747 0.161796 0.177479 
0.351328 0.025032 0.074639 
-0.240553 -0.255936 0.229463 
0.234119 0.157452 0.193775 
-0.246182 0.150714 0.224231 
0.006904 0.441948 -0.073375 
-0.003326 0.441762 -0.067261 
-0.168866 0.353244 0.040727 
0.156868 0.147924 0.229775 
-0.274321 0.355782 0.216347 
-0.120427 0.423582 -0.004789 
-0.453596 0.039288 0.094121 
0.329093 0.013062 0.183401 
0.022474 0.485496 -0.123595 
-0.340237 0.287610 0.289661 
-0.148189 0.388896 0.039641 
-0.103933 0.415506 -0.001771 
0.038614 0.071268 0.269585 
-0.047293 0.512286 -0.077875 
-0.325891 0.194772 0.320615 
-0.346915 0.398136 -0.015265 
-0.004754 0.539022 -0.121831 
0.319216 0.099594 0.074675 
-0.191869 0.209412 0.154817 
-0.300218 0.132864 0.251411 
-0.243349 0.210720 0.228851 
-0.056809 0.530172 -0.059695 
0.290830 0.061758 0.212765 
-0.042379 0.415548 -0.018259 
-0.241868 0.355260 0.167801 
0.291160 0.006744 0.244565 
-0.239054 0.210744 0.224429 
-0.208555 0.379362 0.068009 
-0.091280 0.449994 -0.036433 
-0.023924 0.459258 -0.076081 
0.055054 0.071946 0.271535 
0.015694 0.468438 -0.103069 
0.126532 0.131268 0.248969 
-0.175400 0.344340 0.041699 
-0.305012 0.012582 -0.102535 
-0.199778 0.258072 0.079763 
-0.459811 0.284472 0.104759 
-0.017024 0.556728 -0.107581 
0.313697 0.077088 0.171557 
-0.102506 0.485562 -0.020773 
-0.322952 0.219954 0.303773 
-0.244909 0.185406 0.237173 
0.148883 -0.221478 0.321647 
0.154205 -0.221400 0.318839 
0.158825 -0.221448 0.314999 
0.163150 -0.221592 0.310649 
0.167614 -0.221580 0.306575 
0.172181 -0.221652 0.302615 
0.177112 -0.221616 0.299213 
0.182873 -0.221460 0.297017 
0.189736 -0.221136 0.296423 
0.196570 -0.220770 0.295751 
0.202349 -0.220686 0.293627 
0.207658 -0.220578 0.290771 
0.211996 -0.220752 0.286445 
0.216388 -0.220668 0.282281 
0.220289 -0.220890 0.277307 
0.224255 -0.220854 0.272585 
0.228179 -0.221064 0.267629 
0.232546 -0.220938 0.263435 
0.237484 -0.221238 0.259919 
0.242752 -0.221088 0.257009 
0.247714 -0.221076 0.253637 
0.252437 -0.220848 0.249911 
0.257537 -0.220908 0.246707 
0.262834 -0.220830 0.243863 
0.267868 -0.220866 0.240611 
0.272543 -0.220980 0.236783 
0.277012 -0.220950 0.232733 
0.281152 -0.221040 0.228173 
0.285232 -0.221130 0.223553 
0.289127 -0.221454 0.218525 
0.292858 -0.221664 0.213347 
0.296602 -0.221892 0.208181 
0.300425 -0.222150 0.203099 
0.304480 -0.222240 0.198395 
0.266272 0.125724 0.198125 
-0.251485 0.168186 0.237863 
0.356746 -0.008346 0.086663 
-0.261062 0.168240 0.245087 
-0.266798 0.168084 0.247289 
0.357478 -0.033600 0.104687 
0.257560 0.125814 0.206693 
-0.322771 0.262014 0.282851 
0.369592 -0.218490 0.197951 
0.374620 -0.218466 0.194765 
0.379366 -0.218532 0.191141 
0.384526 -0.218388 0.188021 
0.389867 -0.218292 0.185177 
0.395038 -0.218370 0.182195 
0.400210 -0.218202 0.179117 
0.404656 -0.218412 0.174947 
0.408994 -0.218544 0.170525 
0.412955 -0.218550 0.165785 
0.416602 -0.218664 0.160619 
0.420406 -0.218952 0.155255 
0.424234 -0.218964 0.150491 
0.427804 -0.219222 0.144953 
0.431159 -0.219408 0.139283 
0.323458 0.029178 0.185993 
0.320291 0.029424 0.191819 
-0.137455 0.397470 0.033929 
0.165833 0.180564 0.211127 
0.198407 0.140910 0.226553 
-0.478514 0.218814 0.117149 
-0.040165 0.459018 -0.068005 
-0.000656 0.538854 -0.126163 
0.357437 -0.025200 0.092675 
0.347098 0.024846 0.122657 
-0.364213 -0.152478 0.094757 
-0.009062 0.441678 -0.065113 
-0.099523 0.407676 -0.072733 
0.007564 0.477084 -0.104269 
0.282100 0.109512 0.189281 
-0.246386 0.329568 0.182789 
0.150959 0.172086 0.221141 
-0.146605 0.370890 0.030947 
-0.292250 0.338556 0.232547 
-0.143095 0.388728 0.036365 
-0.220196 0.176406 0.209273 
-0.010009 0.433230 -0.055795 
-0.079123 0.432834 -0.029293 
-0.141925 0.432204 0.006251 
-0.211952 0.176280 0.200015 
-0.258032 0.347004 0.197753 
-0.047042 0.521232 -0.077383 
0.006040 0.521178 -0.127333 
0.346372 0.024792 0.128639 
-0.053120 0.530166 -0.064951 
-0.233336 0.202200 0.222203 
-0.070801 0.406992 0.003965 
0.250793 0.038322 0.260033 
0.277277 0.006882 0.256079 
-0.309422 0.270114 0.260159 
-0.300175 0.269718 0.241415 
-0.120548 0.449922 -0.015445 
-0.111547 0.449904 -0.023533 
-0.194528 0.209562 0.161843 
-0.366926 0.524604 -0.310369 
0.225268 0.157320 0.202163 
-0.205940 0.227040 0.177389 
-0.224138 0.185034 0.214313 
-0.202747 0.226884 0.171479 
-0.270211 0.312534 0.211031 
-0.055333 0.476718 -0.068743 
-0.290947 0.277944 0.223163 
-0.221413 0.210618 0.207713 
-0.213260 0.210492 0.198407 
-0.209792 0.210354 0.193025 
-0.197300 0.226554 0.157901 
0.149908 -0.213054 0.323165 
0.155261 -0.213012 0.320453 
0.159911 -0.213048 0.316655 
0.164470 -0.213072 0.312665 
0.168983 -0.213102 0.308663 
0.173362 -0.213246 0.304445 
0.178613 -0.213150 0.301505 
0.184691 -0.212928 0.299765 
0.191548 -0.212616 0.299165 
0.198095 -0.212382 0.298187 
0.203956 -0.212292 0.296117 
0.209092 -0.212124 0.292931 
0.213652 -0.212154 0.288983 
0.217930 -0.212268 0.284567 
0.221987 -0.212310 0.279911 
0.226019 -0.212316 0.275243 
0.230123 -0.212340 0.270611 
0.235054 -0.212280 0.267173 
0.240293 -0.212436 0.264149 
0.245104 -0.212640 0.260519 
0.249599 -0.212586 0.256457 
0.254404 -0.212472 0.252863 
0.259456 -0.212508 0.249623 
0.264719 -0.212370 0.246695 
0.269944 -0.212202 0.243689 
0.274930 -0.212202 0.240383 
0.279604 -0.212310 0.236597 
0.283882 -0.212148 0.232349 
0.287758 -0.212358 0.227393 
0.291694 -0.212580 0.222443 
0.295264 -0.212970 0.216881 
0.298750 -0.213060 0.211541 
0.302315 -0.213474 0.205955 
0.306112 -0.213714 0.200885 
0.310540 -0.213720 0.196631 
0.321904 -0.044928 -0.068905 
-0.289237 0.380772 -0.187903 
-0.021026 0.567570 -0.103933 
0.301817 0.014322 0.228557 
-0.025400 0.530082 -0.098827 
-0.435980 0.138480 0.284147 
0.077644 0.072918 0.272723 
-0.205747 0.193032 0.187637 
0.374704 -0.210288 0.195035 
0.379918 -0.210186 0.191957 
0.385205 -0.210096 0.189053 
0.390658 -0.210036 0.186455 
0.396113 -0.209982 0.183833 
0.401332 -0.209868 0.180821 
0.405983 -0.209916 0.176975 
0.410273 -0.210036 0.172553 
0.414148 -0.210198 0.167525 
0.417767 -0.210288 0.162293 
0.421396 -0.210564 0.156821 
0.425128 -0.210690 0.151691 
0.428878 -0.210822 0.146579 
0.432664 -0.211146 0.141089 
0.263429 0.030564 0.257243 
-0.067723 0.398040 -0.002245 
-0.206582 0.344520 0.070487 
0.053891 0.063732 0.270533 
-0.291350 0.177030 0.276143 
-0.002510 0.450762 -0.076657 
-0.288776 0.437142 -0.313801 
-0.316453 0.194748 0.313205 
-0.101540 0.449994 -0.030169 
-0.265381 0.176610 0.249461 
-0.087968 0.503418 -0.031189 
-0.026426 0.441462 -0.058723 
-0.197378 0.209736 0.168341 
-0.169033 0.336348 0.009887 
-0.249518 0.329688 0.188723 
-0.136808 0.371004 0.024017 
-0.218762 0.335994 0.084731 
-0.271286 0.338718 0.220757 
-0.076436 0.388950 -0.004447 
-0.071612 0.389214 -0.007957 
-0.067418 0.389028 -0.012529 
-0.023504 0.503472 -0.096397 
-0.189985 0.396858 0.052721 
0.004757 0.433518 -0.066181 
0.143782 0.131514 0.242231 
-0.159416 0.414522 0.023111 
0.001762 0.521292 -0.123103 
-0.214123 0.235602 0.186995 
-0.049424 0.530160 -0.070195 
-0.291055 0.312762 0.234137 
-0.076172 0.406986 0.006719 
0.324773 0.021252 0.187859 
-0.303062 0.269856 0.247913 
-0.306205 0.269988 0.254255 
-0.297169 0.269574 0.235409 
-0.279524 0.269502 0.218747 
-0.273908 0.269388 0.216299 
-0.258631 0.269502 0.206819 
-0.253976 0.269610 0.202973 
-0.249470 0.269592 0.198941 
-0.226046 0.235968 0.201131 
-0.118970 0.458778 -0.013285 
0.215717 0.157278 0.209495 
0.319570 0.099354 0.062681 
-0.221731 0.235818 0.196937 
-0.217178 0.210540 0.203477 
-0.032366 0.468072 -0.077701 
-0.015956 0.521238 -0.106483 
-0.267590 0.236064 0.236003 
-0.272929 0.236052 0.238841 
0.149417 -0.204912 0.322553 
0.155057 -0.204786 0.320165 
0.159838 -0.204810 0.316601 
0.164519 -0.204774 0.312809 
0.169174 -0.204858 0.309041 
0.174214 -0.204780 0.305675 
0.179590 -0.204714 0.302927 
0.185698 -0.204510 0.301223 
0.192586 -0.204198 0.300701 
0.199138 -0.203976 0.299765 
0.204917 -0.203844 0.297587 
0.210190 -0.203730 0.294611 
0.214792 -0.203772 0.290693 
0.219094 -0.203904 0.286301 
0.223300 -0.203994 0.281795 
0.227315 -0.204036 0.277103 
0.231761 -0.204006 0.272999 
0.237118 -0.203928 0.270167 
0.242356 -0.204042 0.267185 
0.247168 -0.203946 0.263621 
0.251639 -0.203928 0.259541 
0.256121 -0.203904 0.255467 
0.261209 -0.203940 0.252239 
0.266465 -0.203820 0.249317 
0.271528 -0.203862 0.246089 
0.276610 -0.203898 0.242915 
0.281549 -0.203868 0.239459 
0.286066 -0.203868 0.235445 
0.290044 -0.203832 0.230753 
0.294023 -0.204072 0.225833 
0.297832 -0.204222 0.220781 
0.300857 -0.204516 0.214529 
0.304150 -0.204786 0.208751 
0.307853 -0.205002 0.203549 
0.311752 -0.205248 0.198503 
-0.323480 0.270522 0.282011 
-0.319694 0.270450 0.276809 
-0.303530 0.186084 0.300113 
-0.307279 0.186180 0.305321 
-0.311053 0.186258 0.310481 
-0.315194 0.186312 0.315035 
-0.316099 0.270348 0.271481 
-0.312709 0.270240 0.265661 
-0.134624 0.361968 0.016427 
0.380158 -0.201954 0.192305 
0.385642 -0.201852 0.189815 
0.391282 -0.201702 0.187397 
0.396665 -0.201624 0.184679 
0.401783 -0.201624 0.181565 
0.406624 -0.201594 0.177989 
0.410962 -0.201702 0.173627 
0.415013 -0.201762 0.168983 
0.418523 -0.201990 0.163421 
0.422092 -0.202236 0.157919 
0.425783 -0.202356 0.152711 
0.429880 -0.202410 0.148151 
0.433666 -0.202566 0.143069 
0.436739 -0.202818 0.136901 
0.303838 0.022176 0.220793 
0.280600 0.014814 0.250355 
-0.215113 0.344628 0.079139 
-0.293857 0.177198 0.282839 
-0.029720 0.530106 -0.094603 
0.008806 0.433476 -0.070873 
-0.126848 0.414762 0.007001 
-0.084260 0.467700 -0.047299 
0.350830 0.025068 0.080657 
-0.080509 0.503340 -0.041629 
-0.032558 0.441720 -0.056923 
-0.038048 0.441438 -0.054409 
-0.284617 0.269382 0.221939 
-0.253424 0.329772 0.193487 
-0.199316 0.335658 0.059831 
0.279586 0.038292 0.238541 
-0.232376 0.141936 0.212339 
0.311422 0.053346 0.189623 
-0.344731 0.228168 0.314537 
-0.313502 0.134712 0.285677 
-0.256831 0.321204 0.199241 
-0.185504 0.396834 0.048683 
-0.062887 0.398094 -0.005803 
-0.236834 0.269436 0.185639 
0.230278 0.061968 0.262103 
0.010126 0.521178 -0.131959 
0.117292 0.114846 0.256703 
-0.412094 0.102204 0.009461 
-0.158150 0.423366 0.024935 
-0.110390 0.406260 0.020183 
-0.316105 0.211608 0.303041 
-0.291494 0.304158 0.233435 
-0.276799 0.277962 0.212159 
-0.297626 0.235968 0.255767 
-0.301394 0.235986 0.260951 
-0.305029 0.236112 0.266237 
0.244558 0.133458 0.208967 
-0.331826 0.236760 0.301487 
-0.336325 0.236820 0.305573 
-0.341065 0.236700 0.309335 
-0.228229 0.185106 0.218951 
-0.196676 0.370830 0.064061 
-0.327584 0.270582 0.286661 
0.231514 0.109584 0.232259 
-0.479480 0.185922 0.093377 
-0.181868 0.362082 0.053777 
-0.209287 0.176106 0.193493 
0.137129 -0.197244 0.325901 
-0.130225 0.362088 0.012263 
-0.244916 0.346692 0.173831 
0.154451 -0.196836 0.319439 
0.159166 -0.196800 0.315653 
0.163913 -0.196830 0.311987 
0.168952 -0.196836 0.308777 
0.174556 -0.196662 0.306275 
0.180232 -0.196506 0.303887 
0.186383 -0.196326 0.302303 
0.192856 -0.196074 0.301091 
0.199409 -0.195834 0.300197 
0.205504 -0.195624 0.298445 
0.210886 -0.195558 0.295709 
0.215308 -0.195666 0.291509 
0.219940 -0.195612 0.287663 
0.224194 -0.195714 0.283229 
0.228395 -0.195810 0.278741 
0.232930 -0.195822 0.274757 
0.238486 -0.195618 0.272249 
0.243952 -0.195576 0.269603 
0.248884 -0.195780 0.266171 
0.252989 -0.195594 0.261587 
0.257261 -0.195732 0.257201 
0.262204 -0.195708 0.253793 
0.267424 -0.195558 0.250757 
0.272794 -0.195486 0.247985 
0.278260 -0.195462 0.245369 
