5.869725e+00 5.995436e+00 5.893694e+00
5.868098e+00 5.971971e+00 5.938713e+00
5.866884e+00 5.982778e+00 5.904703e+00
5.840658e+00 5.938538e+00 5.992906e+00
5.881513e+00 5.967692e+00 5.959697e+00
5.877993e+00 5.966106e+00 5.976712e+00
5.883400e+00 5.958484e+00 5.960712e+00
5.973406e+00 5.910429e+00 5.945507e+00
5.878912e+00 5.961461e+00 5.978684e+00
5.881049e+00 5.967697e+00 5.963691e+00
5.861625e+00 5.858837e+00 5.947662e+00
5.866353e+00 5.981177e+00 5.906694e+00
5.888427e+00 5.972284e+00 5.954742e+00
5.863426e+00 5.967263e+00 5.941070e+00
5.869249e+00 5.981338e+00 5.924709e+00
5.877432e+00 5.975359e+00 5.975706e+00
5.868335e+00 5.973605e+00 5.937736e+00
5.882085e+00 5.961537e+00 5.959707e+00
5.881883e+00 5.961553e+00 5.958701e+00
5.858799e+00 5.979891e+00 5.913389e+00
5.880259e+00 5.959941e+00 5.952737e+00
5.845641e+00 5.936368e+00 5.995753e+00
5.876055e+00 5.972225e+00 5.979684e+00
5.843724e+00 5.934947e+00 5.962659e+00
5.869369e+00 5.982911e+00 5.922709e+00
5.988800e+00 5.878267e+00 5.972476e+00
5.989048e+00 5.878287e+00 5.971477e+00
5.989197e+00 5.878282e+00 5.970483e+00
5.989315e+00 5.878293e+00 5.969481e+00
5.989403e+00 5.878316e+00 5.968475e+00
5.989430e+00 5.878302e+00 5.967479e+00
5.989542e+00 5.878314e+00 5.966476e+00
5.989568e+00 5.878301e+00 5.965476e+00
5.989624e+00 5.878336e+00 5.964473e+00
5.989504e+00 5.878324e+00 5.963475e+00
5.989289e+00 5.878286e+00 5.962469e+00
5.989130e+00 5.878288e+00 5.961476e+00
5.988982e+00 5.878282e+00 5.960480e+00
5.988662e+00 5.878230e+00 5.959474e+00
5.988396e+00 5.878214e+00 5.958480e+00
5.988040e+00 5.878173e+00 5.957476e+00
5.987567e+00 5.878124e+00 5.956475e+00
5.987049e+00 5.878085e+00 5.955491e+00
5.986426e+00 5.878033e+00 5.954506e+00
5.985825e+00 5.877970e+00 5.953509e+00
5.985205e+00 5.877920e+00 5.952526e+00
5.984390e+00 5.877825e+00 5.951512e+00
5.983726e+00 5.877792e+00 5.950573e+00
5.982316e+00 5.877601e+00 5.949460e+00
5.925241e+00 5.939169e+00 5.934779e+00
5.926263e+00 5.939141e+00 5.934810e+00
5.840056e+00 5.941757e+00 5.958600e+00
5.838344e+00 5.945974e+00 5.982579e+00
5.963839e+00 5.875912e+00 5.944662e+00
5.962982e+00 5.875800e+00 5.943595e+00
5.962488e+00 5.875741e+00 5.942573e+00
5.962075e+00 5.875648e+00 5.941523e+00
5.961752e+00 5.875648e+00 5.940562e+00
5.961383e+00 5.875606e+00 5.939559e+00
5.961007e+00 5.875564e+00 5.938555e+00
5.960634e+00 5.875525e+00 5.937553e+00
5.960272e+00 5.875480e+00 5.936545e+00
5.959885e+00 5.875445e+00 5.935544e+00
5.959385e+00 5.875391e+00 5.934536e+00
5.958759e+00 5.875326e+00 5.933520e+00
5.958038e+00 5.875302e+00 5.932582e+00
5.957033e+00 5.875198e+00 5.931576e+00
5.921225e+00 5.943613e+00 5.938061e+00
5.915401e+00 5.944579e+00 5.941124e+00
5.963912e+00 5.934932e+00 5.945267e+00
5.958435e+00 5.930672e+00 5.937820e+00
5.980416e+00 5.893798e+00 5.954815e+00
5.925529e+00 5.924520e+00 5.928328e+00
5.872933e+00 5.946415e+00 5.943576e+00
5.901946e+00 5.947069e+00 5.946632e+00
5.869357e+00 5.982906e+00 5.920709e+00
5.868463e+00 5.992305e+00 5.903707e+00
5.882145e+00 5.960011e+00 5.957707e+00
5.867874e+00 5.984400e+00 5.907693e+00
5.868467e+00 5.989170e+00 5.910704e+00
5.868366e+00 5.987578e+00 5.904706e+00
5.843880e+00 5.936219e+00 5.958629e+00
5.976276e+00 5.916292e+00 5.963460e+00
5.869859e+00 5.995437e+00 5.892596e+00
5.876404e+00 5.972234e+00 5.978706e+00
5.871251e+00 5.890420e+00 5.986206e+00
5.882499e+00 5.961587e+00 5.962693e+00
5.877825e+00 5.966094e+00 5.977706e+00
5.883250e+00 5.958480e+00 5.959714e+00
5.891650e+00 5.973933e+00 5.952702e+00
5.975869e+00 5.919071e+00 5.959464e+00
5.879246e+00 5.961504e+00 5.977705e+00
5.880842e+00 5.967678e+00 5.964675e+00
5.852176e+00 5.900898e+00 5.981953e+00
5.866511e+00 5.981175e+00 5.907688e+00
5.922235e+00 5.997125e+00 5.925474e+00
5.899929e+00 5.931121e+00 5.931373e+00
5.869366e+00 5.981341e+00 5.925709e+00
5.877557e+00 5.975358e+00 5.974700e+00
5.868548e+00 5.973579e+00 5.940722e+00
5.881721e+00 5.961542e+00 5.957704e+00
5.881524e+00 5.961519e+00 5.956722e+00
5.877773e+00 5.964534e+00 5.978689e+00
5.867844e+00 5.982845e+00 5.910699e+00
5.972841e+00 5.927340e+00 5.958465e+00
5.970758e+00 5.924410e+00 5.979453e+00
5.877293e+00 5.973802e+00 5.976712e+00
5.988984e+00 5.879646e+00 5.973497e+00
5.989312e+00 5.879690e+00 5.972481e+00
5.989535e+00 5.879716e+00 5.971476e+00
5.989674e+00 5.879720e+00 5.970479e+00
5.989808e+00 5.879724e+00 5.969480e+00
5.989906e+00 5.879742e+00 5.968475e+00
5.990003e+00 5.879757e+00 5.967472e+00
5.990040e+00 5.879742e+00 5.966473e+00
5.990127e+00 5.879765e+00 5.965471e+00
5.990046e+00 5.879734e+00 5.964467e+00
5.989993e+00 5.879754e+00 5.963471e+00
5.989850e+00 5.879746e+00 5.962473e+00
5.989637e+00 5.879712e+00 5.961467e+00
5.989389e+00 5.879687e+00 5.960468e+00
5.989159e+00 5.879658e+00 5.959463e+00
5.988819e+00 5.879616e+00 5.958458e+00
5.988516e+00 5.879610e+00 5.957480e+00
5.988051e+00 5.879555e+00 5.956469e+00
5.987536e+00 5.879518e+00 5.955487e+00
5.986849e+00 5.879436e+00 5.954468e+00
5.986307e+00 5.879407e+00 5.953505e+00
5.985627e+00 5.879322e+00 5.952480e+00
5.984996e+00 5.879272e+00 5.951506e+00
5.984245e+00 5.879209e+00 5.950535e+00
5.983210e+00 5.879052e+00 5.949553e+00
5.916171e+00 5.947003e+00 5.944559e+00
5.918844e+00 5.940119e+00 5.935792e+00
5.836554e+00 5.947277e+00 5.968576e+00
5.839165e+00 5.947186e+00 5.959590e+00
5.965232e+00 5.877448e+00 5.944663e+00
5.964174e+00 5.877282e+00 5.943545e+00
5.963448e+00 5.877189e+00 5.942528e+00
5.962920e+00 5.877150e+00 5.941543e+00
5.962355e+00 5.877058e+00 5.940515e+00
5.962054e+00 5.877059e+00 5.939536e+00
5.961656e+00 5.877032e+00 5.938545e+00
5.961228e+00 5.877011e+00 5.937564e+00
5.960759e+00 5.876955e+00 5.936549e+00
5.960375e+00 5.876915e+00 5.935551e+00
5.959902e+00 5.876864e+00 5.934527e+00
5.959379e+00 5.876817e+00 5.933527e+00
5.958713e+00 5.876765e+00 5.932543e+00
5.957570e+00 5.876654e+00 5.931540e+00
5.903185e+00 5.946471e+00 5.945271e+00
5.917917e+00 5.943360e+00 5.938362e+00
5.916769e+00 5.943227e+00 5.938525e+00
5.915714e+00 5.943186e+00 5.938568e+00
5.901079e+00 5.932358e+00 5.932068e+00
5.942001e+00 5.948737e+00 5.944383e+00
5.938236e+00 5.940733e+00 5.935041e+00
5.917444e+00 5.946443e+00 5.943136e+00
5.976454e+00 5.914891e+00 5.957479e+00
5.976493e+00 5.914896e+00 5.958470e+00
5.868633e+00 5.992304e+00 5.901713e+00
5.868605e+00 5.992303e+00 5.902704e+00
5.868802e+00 5.976684e+00 5.934718e+00
5.867887e+00 5.989167e+00 5.918703e+00
5.867201e+00 5.987594e+00 5.927706e+00
5.836151e+00 5.948653e+00 5.972564e+00
5.922129e+00 5.995637e+00 5.926574e+00
5.866972e+00 5.995426e+00 5.904696e+00
5.867607e+00 5.989165e+00 5.920706e+00
5.867251e+00 5.978075e+00 5.916664e+00
5.877601e+00 5.970723e+00 5.974699e+00
5.973526e+00 5.923162e+00 5.972455e+00
5.882766e+00 5.958515e+00 5.957696e+00
5.882605e+00 5.961575e+00 5.965695e+00
5.866752e+00 5.997048e+00 5.902726e+00
5.975317e+00 5.919018e+00 5.955488e+00
5.879642e+00 5.961492e+00 5.976694e+00
5.880570e+00 5.967670e+00 5.965677e+00
5.854883e+00 5.896476e+00 5.981036e+00
5.866781e+00 5.981190e+00 5.908685e+00
5.849479e+00 5.929097e+00 5.947718e+00
5.976366e+00 5.916293e+00 5.958470e+00
5.869371e+00 5.981342e+00 5.926712e+00
5.877667e+00 5.975350e+00 5.973695e+00
5.868452e+00 5.973578e+00 5.941723e+00
5.868434e+00 5.973581e+00 5.942723e+00
5.837782e+00 5.947224e+00 5.962576e+00
5.868538e+00 5.976683e+00 5.938718e+00
5.844503e+00 5.926660e+00 5.956721e+00
5.975806e+00 5.914858e+00 5.970463e+00
5.916407e+00 5.945455e+00 5.942182e+00
5.876972e+00 5.976902e+00 5.973697e+00
5.989373e+00 5.881062e+00 5.973509e+00
5.989781e+00 5.881128e+00 5.972473e+00
5.989928e+00 5.881130e+00 5.971480e+00
5.990140e+00 5.881159e+00 5.970471e+00
5.990349e+00 5.881187e+00 5.969466e+00
5.990408e+00 5.881167e+00 5.968473e+00
5.990526e+00 5.881178e+00 5.967473e+00
5.990601e+00 5.881197e+00 5.966468e+00
5.990633e+00 5.881186e+00 5.965468e+00
5.990625e+00 5.881185e+00 5.964466e+00
5.990592e+00 5.881195e+00 5.963465e+00
5.990441e+00 5.881192e+00 5.962468e+00
5.990208e+00 5.881166e+00 5.961470e+00
5.989961e+00 5.881141e+00 5.960472e+00
5.989694e+00 5.881123e+00 5.959478e+00
5.989369e+00 5.881074e+00 5.958467e+00
5.989007e+00 5.881042e+00 5.957471e+00
5.988597e+00 5.881019e+00 5.956491e+00
5.988046e+00 5.880944e+00 5.955471e+00
5.987416e+00 5.880894e+00 5.954488e+00
5.986807e+00 5.880837e+00 5.953490e+00
5.986182e+00 5.880783e+00 5.952509e+00
5.985467e+00 5.880710e+00 5.951511e+00
5.984624e+00 5.880628e+00 5.950516e+00
5.983740e+00 5.880556e+00 5.949572e+00
5.896218e+00 5.941314e+00 5.938695e+00
5.842052e+00 5.941675e+00 5.955569e+00
5.836363e+00 5.947319e+00 5.975581e+00
5.950500e+00 5.936788e+00 5.937246e+00
5.966374e+00 5.878951e+00 5.944640e+00
5.965557e+00 5.878922e+00 5.943646e+00
5.964613e+00 5.878781e+00 5.942586e+00
5.963780e+00 5.878658e+00 5.941553e+00
5.963256e+00 5.878621e+00 5.940562e+00
5.962676e+00 5.878533e+00 5.939535e+00
5.962340e+00 5.878539e+00 5.938577e+00
5.961760e+00 5.878464e+00 5.937547e+00
5.961140e+00 5.878402e+00 5.936540e+00
5.960565e+00 5.878337e+00 5.935508e+00
5.960141e+00 5.878307e+00 5.934528e+00
5.959597e+00 5.878262e+00 5.933546e+00
5.958725e+00 5.878179e+00 5.932528e+00
5.957412e+00 5.878062e+00 5.931570e+00
5.901352e+00 5.944030e+00 5.941834e+00
5.906031e+00 5.947736e+00 5.947887e+00
5.908314e+00 5.948055e+00 5.947510e+00
5.937301e+00 5.942973e+00 5.936634e+00
5.956677e+00 5.908965e+00 5.928748e+00
5.893247e+00 5.940719e+00 5.937315e+00
5.922093e+00 5.950272e+00 5.944955e+00
5.838878e+00 5.951436e+00 5.986548e+00
5.837997e+00 5.951319e+00 5.963553e+00
5.976529e+00 5.914900e+00 5.959467e+00
5.973439e+00 5.913241e+00 5.945489e+00
5.868735e+00 5.992299e+00 5.900705e+00
5.868485e+00 5.976639e+00 5.928717e+00
5.868661e+00 5.986056e+00 5.924710e+00
5.868127e+00 5.984424e+00 5.909700e+00
5.869235e+00 5.984485e+00 5.922709e+00
5.851993e+00 5.901791e+00 5.982904e+00
5.846915e+00 5.902048e+00 5.971079e+00
5.973725e+00 5.913265e+00 5.946480e+00
5.868964e+00 5.978241e+00 5.934714e+00
5.877802e+00 5.970729e+00 5.973694e+00
5.976597e+00 5.914904e+00 5.960467e+00
5.881547e+00 5.958442e+00 5.953724e+00
5.867249e+00 5.996999e+00 5.901695e+00
5.842636e+00 5.920018e+00 5.958731e+00
5.854885e+00 5.937093e+00 5.946617e+00
5.868500e+00 5.989173e+00 5.908706e+00
5.879967e+00 5.961529e+00 5.975708e+00
5.880328e+00 5.967677e+00 5.966690e+00
5.900667e+00 5.859821e+00 6.002996e+00
5.867006e+00 5.981229e+00 5.909692e+00
5.848742e+00 5.929142e+00 5.948698e+00
5.975798e+00 5.917673e+00 5.966462e+00
5.868267e+00 5.981346e+00 5.935720e+00
5.877807e+00 5.975351e+00 5.972694e+00
5.844071e+00 5.937528e+00 5.956583e+00
5.868398e+00 5.973576e+00 5.943721e+00
5.837121e+00 5.947251e+00 5.965579e+00
5.867694e+00 5.981272e+00 5.912697e+00
5.974064e+00 5.913287e+00 5.947496e+00
5.868049e+00 5.975143e+00 5.944727e+00
5.853938e+00 5.937135e+00 5.947627e+00
5.969210e+00 5.912902e+00 5.938524e+00
5.989766e+00 5.882519e+00 5.973466e+00
5.990071e+00 5.882528e+00 5.972490e+00
5.990404e+00 5.882565e+00 5.971476e+00
5.990558e+00 5.882567e+00 5.970479e+00
5.990767e+00 5.882593e+00 5.969472e+00
5.990890e+00 5.882601e+00 5.968472e+00
5.990993e+00 5.882614e+00 5.967469e+00
5.991089e+00 5.882627e+00 5.966466e+00
5.991119e+00 5.882618e+00 5.965465e+00
5.991192e+00 5.882640e+00 5.964464e+00
5.991108e+00 5.882618e+00 5.963459e+00
5.990972e+00 5.882608e+00 5.962461e+00
5.990715e+00 5.882586e+00 5.961461e+00
5.990464e+00 5.882598e+00 5.960473e+00
5.990216e+00 5.882544e+00 5.959464e+00
5.989952e+00 5.882522e+00 5.958472e+00
5.989599e+00 5.882484e+00 5.957472e+00
5.989112e+00 5.882439e+00 5.956474e+00
5.988590e+00 5.882401e+00 5.955498e+00
5.987913e+00 5.882323e+00 5.954474e+00
5.987308e+00 5.882266e+00 5.953479e+00
5.986581e+00 5.882195e+00 5.952483e+00
5.985927e+00 5.882144e+00 5.951523e+00
5.985111e+00 5.882060e+00 5.950510e+00
5.901871e+00 5.862577e+00 5.922547e+00
5.866723e+00 5.939494e+00 5.940872e+00
5.842979e+00 5.941632e+00 5.954560e+00
5.836603e+00 5.947317e+00 5.976580e+00
5.885185e+00 5.950577e+00 5.945000e+00
5.967197e+00 5.880394e+00 5.944552e+00
5.966640e+00 5.880379e+00 5.943582e+00
5.966019e+00 5.880411e+00 5.942653e+00
5.964918e+00 5.880174e+00 5.941548e+00
5.964468e+00 5.880186e+00 5.940596e+00
5.963726e+00 5.880093e+00 5.939583e+00
5.962836e+00 5.879938e+00 5.938498e+00
5.962170e+00 5.879896e+00 5.937522e+00
5.961400e+00 5.879832e+00 5.936528e+00
5.960697e+00 5.879758e+00 5.935490e+00
5.960047e+00 5.879705e+00 5.934498e+00
5.959412e+00 5.879648e+00 5.933492e+00
5.958394e+00 5.879556e+00 5.932482e+00
5.957233e+00 5.879449e+00 5.931495e+00
5.956205e+00 5.879237e+00 5.930640e+00
5.955546e+00 5.879288e+00 5.929543e+00
5.954925e+00 5.879224e+00 5.928531e+00
5.910646e+00 5.916318e+00 5.916757e+00
5.938323e+00 5.942896e+00 5.936712e+00
5.911033e+00 5.944346e+00 5.941422e+00
5.943619e+00 5.929759e+00 5.932770e+00
5.849423e+00 5.963480e+00 5.950488e+00
5.845293e+00 5.960777e+00 5.953554e+00
5.837624e+00 5.947315e+00 5.979583e+00
5.915938e+00 5.930382e+00 5.930085e+00
5.912848e+00 5.918551e+00 5.918498e+00
5.866137e+00 5.889785e+00 5.982171e+00
5.843005e+00 5.937157e+00 5.994529e+00
5.976518e+00 5.914901e+00 5.961463e+00
5.868566e+00 5.976655e+00 5.927718e+00
5.969896e+00 5.912968e+00 5.939486e+00
5.868109e+00 5.984425e+00 5.908700e+00
5.868853e+00 5.993866e+00 5.899701e+00
5.839719e+00 5.939947e+00 5.993350e+00
5.878605e+00 5.975341e+00 5.968682e+00
5.868810e+00 5.978238e+00 5.936712e+00
5.878519e+00 5.970733e+00 5.970699e+00
5.843411e+00 5.936277e+00 5.973720e+00
5.845215e+00 5.934812e+00 5.958640e+00
5.881458e+00 5.964622e+00 5.965691e+00
5.842187e+00 5.926826e+00 5.964684e+00
5.854618e+00 5.974473e+00 5.939421e+00
5.902988e+00 6.005959e+00 5.940248e+00
5.868508e+00 5.989168e+00 5.907705e+00
5.880367e+00 5.961524e+00 5.974697e+00
5.880067e+00 5.967679e+00 5.967696e+00
5.901578e+00 5.859620e+00 6.003359e+00
5.867166e+00 5.981233e+00 5.910689e+00
5.848340e+00 5.922354e+00 5.946685e+00
5.975749e+00 5.917663e+00 5.967454e+00
5.868072e+00 5.981322e+00 5.936705e+00
5.867685e+00 5.981336e+00 5.937715e+00
5.855079e+00 5.934428e+00 5.995876e+00
5.868304e+00 5.973583e+00 5.944724e+00
5.862848e+00 5.886408e+00 5.972077e+00
5.853518e+00 5.932998e+00 5.945692e+00
5.849127e+00 5.933202e+00 5.950702e+00
5.868325e+00 5.987603e+00 5.921705e+00
5.971165e+00 5.924443e+00 5.978464e+00
5.969465e+00 5.914332e+00 5.939528e+00
5.990024e+00 5.883924e+00 5.973469e+00
5.990390e+00 5.883955e+00 5.972471e+00
5.990586e+00 5.883955e+00 5.971487e+00
5.990862e+00 5.883998e+00 5.970466e+00
5.991030e+00 5.883999e+00 5.969476e+00
5.991232e+00 5.884024e+00 5.968466e+00
5.991336e+00 5.884036e+00 5.967463e+00
5.991393e+00 5.884025e+00 5.966468e+00
5.991494e+00 5.884038e+00 5.965461e+00
5.991590e+00 5.884052e+00 5.964461e+00
5.991490e+00 5.884033e+00 5.963457e+00
5.991352e+00 5.884023e+00 5.962453e+00
5.991186e+00 5.884019e+00 5.961461e+00
5.990937e+00 5.883995e+00 5.960463e+00
5.990613e+00 5.883956e+00 5.959452e+00
5.990330e+00 5.883938e+00 5.958465e+00
5.989985e+00 5.883900e+00 5.957459e+00
5.989600e+00 5.883868e+00 5.956469e+00
5.989064e+00 5.883826e+00 5.955499e+00
5.988377e+00 5.883755e+00 5.954486e+00
5.987683e+00 5.883685e+00 5.953466e+00
5.986931e+00 5.883617e+00 5.952490e+00
5.986223e+00 5.883549e+00 5.951480e+00
5.985386e+00 5.883470e+00 5.950479e+00
5.878964e+00 5.928646e+00 5.932260e+00
5.864865e+00 5.957087e+00 5.943900e+00
5.838776e+00 5.943236e+00 5.979602e+00
5.968964e+00 5.881951e+00 5.946382e+00
5.968545e+00 5.881936e+00 5.945610e+00
5.968120e+00 5.881930e+00 5.944617e+00
5.967455e+00 5.881822e+00 5.943542e+00
5.966871e+00 5.881818e+00 5.942587e+00
5.966308e+00 5.881803e+00 5.941625e+00
5.965387e+00 5.881659e+00 5.940569e+00
5.964740e+00 5.881600e+00 5.939583e+00
5.963977e+00 5.881525e+00 5.938587e+00
5.962778e+00 5.881370e+00 5.937531e+00
5.961689e+00 5.881250e+00 5.936490e+00
5.960894e+00 5.881195e+00 5.935521e+00
5.960041e+00 5.881110e+00 5.934493e+00
5.959312e+00 5.881038e+00 5.933466e+00
5.958460e+00 5.880978e+00 5.932537e+00
5.957472e+00 5.880878e+00 5.931514e+00
5.956685e+00 5.880810e+00 5.930540e+00
5.955951e+00 5.880731e+00 5.929520e+00
5.955424e+00 5.880689e+00 5.928532e+00
5.954775e+00 5.880633e+00 5.927537e+00
5.942061e+00 5.917746e+00 5.923553e+00
5.954602e+00 5.930464e+00 5.936042e+00
5.912018e+00 5.946175e+00 5.943480e+00
5.853429e+00 5.984177e+00 5.927378e+00
5.933965e+00 5.931768e+00 5.931913e+00
5.837966e+00 5.947315e+00 5.980580e+00
5.976490e+00 5.914899e+00 5.962460e+00
5.896667e+00 5.932040e+00 5.932399e+00
5.905447e+00 5.930603e+00 5.929910e+00
5.868459e+00 5.972029e+00 5.944722e+00
5.864039e+00 5.915400e+00 5.934823e+00
5.976401e+00 5.914894e+00 5.963463e+00
5.846914e+00 5.970463e+00 5.956472e+00
5.975039e+00 5.916216e+00 5.974456e+00
5.868770e+00 5.987607e+00 5.913703e+00
5.868989e+00 5.993864e+00 5.898701e+00
5.844776e+00 5.923934e+00 5.953701e+00
5.845485e+00 5.919808e+00 5.950713e+00
5.868538e+00 5.978237e+00 5.937716e+00
5.861451e+00 5.891753e+00 5.981234e+00
5.939057e+00 5.949222e+00 5.943892e+00
5.879748e+00 5.948341e+00 5.943439e+00
5.867870e+00 5.970386e+00 5.940706e+00
5.849323e+00 5.930481e+00 5.948680e+00
5.838140e+00 5.941956e+00 5.987601e+00
5.841141e+00 5.962407e+00 5.986489e+00
5.868500e+00 5.989164e+00 5.906706e+00
5.880771e+00 5.961522e+00 5.973690e+00
5.879852e+00 5.967645e+00 5.968674e+00
5.902527e+00 5.859500e+00 6.003667e+00
5.868309e+00 5.981281e+00 5.915689e+00
5.868500e+00 5.981275e+00 5.916680e+00
5.971750e+00 5.923047e+00 5.978444e+00
5.868590e+00 6.000108e+00 5.895667e+00
5.841511e+00 5.920096e+00 5.964720e+00
5.881628e+00 5.963094e+00 5.967695e+00
5.907673e+00 6.008917e+00 5.936235e+00
5.843334e+00 5.919951e+00 5.955715e+00
5.868720e+00 5.978201e+00 5.923710e+00
5.839033e+00 5.939091e+00 5.972503e+00
5.878421e+00 5.889347e+00 5.986906e+00
5.972050e+00 5.927331e+00 5.970463e+00
5.840123e+00 5.966496e+00 5.976465e+00
5.990138e+00 5.885319e+00 5.973464e+00
5.990434e+00 5.885337e+00 5.972481e+00
5.990686e+00 5.885354e+00 5.971482e+00
5.990931e+00 5.885376e+00 5.970479e+00
5.991190e+00 5.885393e+00 5.969483e+00
5.991404e+00 5.885417e+00 5.968471e+00
5.991507e+00 5.885429e+00 5.967465e+00
5.991598e+00 5.885440e+00 5.966464e+00
5.991701e+00 5.885452e+00 5.965458e+00
5.991745e+00 5.885448e+00 5.964456e+00
5.991747e+00 5.885446e+00 5.963452e+00
5.991693e+00 5.885447e+00 5.962453e+00
5.991458e+00 5.885423e+00 5.961451e+00
5.991210e+00 5.885398e+00 5.960451e+00
5.990946e+00 5.885378e+00 5.959457e+00
5.990608e+00 5.885420e+00 5.958427e+00
5.990242e+00 5.885309e+00 5.957450e+00
5.989759e+00 5.885266e+00 5.956446e+00
5.989225e+00 5.885218e+00 5.955477e+00
5.988492e+00 5.885151e+00 5.954489e+00
5.987582e+00 5.885066e+00 5.953447e+00
5.986787e+00 5.885000e+00 5.952415e+00
5.986142e+00 5.884945e+00 5.951454e+00
5.849924e+00 5.931813e+00 5.948683e+00
5.839814e+00 5.954019e+00 5.959549e+00
5.836916e+00 5.943239e+00 5.968598e+00
5.970080e+00 5.883440e+00 5.947173e+00
5.969589e+00 5.883427e+00 5.946574e+00
5.969162e+00 5.883409e+00 5.945596e+00
5.968796e+00 5.883375e+00 5.944560e+00
5.968391e+00 5.883355e+00 5.943572e+00
5.967702e+00 5.883251e+00 5.942540e+00
5.966962e+00 5.883169e+00 5.941529e+00
5.966405e+00 5.883145e+00 5.940565e+00
5.965735e+00 5.883101e+00 5.939593e+00
5.964864e+00 5.883013e+00 5.938583e+00
5.963985e+00 5.882925e+00 5.937576e+00
5.962920e+00 5.882861e+00 5.936627e+00
5.961517e+00 5.882655e+00 5.935527e+00
5.960437e+00 5.882528e+00 5.934470e+00
5.959760e+00 5.882494e+00 5.933508e+00
5.959054e+00 5.882454e+00 5.932566e+00
5.958214e+00 5.882352e+00 5.931538e+00
5.957433e+00 5.882294e+00 5.930544e+00
5.956662e+00 5.882223e+00 5.929556e+00
5.955826e+00 5.882136e+00 5.928503e+00
5.955114e+00 5.882155e+00 5.927553e+00
5.962128e+00 5.932589e+00 5.941769e+00
5.957891e+00 5.916479e+00 5.930922e+00
5.904344e+00 5.945685e+00 5.944097e+00
5.837699e+00 5.943197e+00 5.964601e+00
5.837475e+00 5.943206e+00 5.965599e+00
5.847312e+00 5.934801e+00 5.979663e+00
5.976011e+00 5.914869e+00 5.968460e+00
5.975909e+00 5.914864e+00 5.969461e+00
5.841291e+00 5.963661e+00 5.965510e+00
5.854295e+00 5.932346e+00 5.988440e+00
5.862808e+00 5.998171e+00 5.895275e+00
5.842124e+00 5.949835e+00 5.954571e+00
5.868856e+00 5.992294e+00 5.899704e+00
5.915009e+00 6.009321e+00 5.931570e+00
5.841970e+00 5.925512e+00 5.970681e+00
5.869153e+00 5.993866e+00 5.897704e+00
5.898792e+00 5.947188e+00 5.946573e+00
5.869233e+00 5.984484e+00 5.923708e+00
5.868824e+00 5.978240e+00 5.935715e+00
5.868490e+00 5.970482e+00 5.945707e+00
5.943383e+00 5.945422e+00 5.939965e+00
5.866907e+00 5.993898e+00 5.907717e+00
5.868352e+00 5.987569e+00 5.901709e+00
5.836982e+00 5.943251e+00 5.973594e+00
5.956889e+00 5.941756e+00 5.945926e+00
5.878975e+00 5.969167e+00 5.968667e+00
5.868415e+00 5.989161e+00 5.905706e+00
5.881145e+00 5.961504e+00 5.972674e+00
5.879442e+00 5.967641e+00 5.969677e+00
5.903562e+00 5.859538e+00 6.003856e+00
5.857359e+00 5.889390e+00 5.968363e+00
5.868731e+00 5.981306e+00 5.917701e+00
5.841897e+00 5.962375e+00 5.978490e+00
5.869162e+00 5.999994e+00 5.890916e+00
5.845870e+00 5.936387e+00 5.981501e+00
5.860062e+00 5.893503e+00 5.982938e+00
5.882153e+00 5.963094e+00 5.964691e+00
5.882170e+00 5.963102e+00 5.963695e+00
5.878040e+00 5.969170e+00 5.972687e+00
5.881615e+00 5.964631e+00 5.964694e+00
5.837013e+00 5.951414e+00 5.976564e+00
5.851983e+00 5.930332e+00 5.945717e+00
5.902235e+00 5.860177e+00 6.004759e+00
5.990150e+00 5.886704e+00 5.973463e+00
5.990523e+00 5.886735e+00 5.972470e+00
5.990819e+00 5.886751e+00 5.971482e+00
5.991046e+00 5.886772e+00 5.970477e+00
5.991305e+00 5.886795e+00 5.969476e+00
5.991525e+00 5.886815e+00 5.968468e+00
5.991636e+00 5.886823e+00 5.967464e+00
5.991714e+00 5.886836e+00 5.966458e+00
5.991752e+00 5.886834e+00 5.965457e+00
5.991843e+00 5.886845e+00 5.964454e+00
5.991850e+00 5.886793e+00 5.963402e+00
5.991750e+00 5.886837e+00 5.962445e+00
5.991587e+00 5.886822e+00 5.961447e+00
5.991327e+00 5.886798e+00 5.960452e+00
5.991005e+00 5.886767e+00 5.959437e+00
5.990651e+00 5.886735e+00 5.958433e+00
5.990207e+00 5.886694e+00 5.957410e+00
5.989757e+00 5.886652e+00 5.956448e+00
5.989220e+00 5.886602e+00 5.955480e+00
5.988376e+00 5.886522e+00 5.954486e+00
5.987139e+00 5.886424e+00 5.953418e+00
5.853167e+00 5.926171e+00 5.942719e+00
5.851362e+00 5.929005e+00 5.945697e+00
5.849111e+00 5.931845e+00 5.949692e+00
5.863006e+00 5.919681e+00 5.935658e+00
5.872767e+00 5.961418e+00 5.946636e+00
5.970661e+00 5.884923e+00 5.947507e+00
5.970159e+00 5.884869e+00 5.946520e+00
5.969754e+00 5.884840e+00 5.945524e+00
5.969452e+00 5.884832e+00 5.944546e+00
5.969056e+00 5.884802e+00 5.943557e+00
5.968566e+00 5.884744e+00 5.942560e+00
5.967727e+00 5.884647e+00 5.941524e+00
5.967173e+00 5.884615e+00 5.940557e+00
5.966209e+00 5.884505e+00 5.939517e+00
5.965441e+00 5.884435e+00 5.938521e+00
5.964746e+00 5.884398e+00 5.937572e+00
5.963899e+00 5.884300e+00 5.936538e+00
5.963063e+00 5.884267e+00 5.935609e+00
5.962213e+00 5.884238e+00 5.934704e+00
5.960399e+00 5.883951e+00 5.933473e+00
5.959643e+00 5.883887e+00 5.932492e+00
5.958976e+00 5.883841e+00 5.931520e+00
5.958202e+00 5.883777e+00 5.930531e+00
5.957243e+00 5.883679e+00 5.929477e+00
5.956175e+00 5.883587e+00 5.928500e+00
5.948759e+00 5.946477e+00 5.944818e+00
5.881344e+00 5.937141e+00 5.935122e+00
5.844878e+00 5.933488e+00 5.961651e+00
5.951484e+00 5.945598e+00 5.945768e+00
5.837247e+00 5.943218e+00 5.966599e+00
5.945619e+00 5.917420e+00 5.925899e+00
5.836907e+00 5.947315e+00 5.977593e+00
5.838241e+00 5.943286e+00 5.984592e+00
5.976382e+00 5.916296e+00 5.961462e+00
5.868872e+00 5.978218e+00 5.927715e+00
5.867961e+00 5.976671e+00 5.942716e+00
5.845418e+00 5.925252e+00 5.952719e+00
5.867998e+00 5.985971e+00 5.902710e+00
5.919027e+00 5.988073e+00 5.936536e+00
5.868996e+00 5.979768e+00 5.923709e+00
5.869310e+00 5.993869e+00 5.896707e+00
5.902222e+00 6.004496e+00 5.938264e+00
5.869082e+00 5.984482e+00 5.925708e+00
5.868981e+00 5.978239e+00 5.933715e+00
5.868806e+00 5.970505e+00 5.946687e+00
5.869128e+00 5.995437e+00 5.897699e+00
5.973707e+00 5.886863e+00 5.949780e+00
5.841219e+00 5.936373e+00 5.967631e+00
5.838725e+00 5.943273e+00 5.982604e+00
5.872143e+00 5.859460e+00 5.997143e+00
5.841744e+00 5.936416e+00 5.963656e+00
5.854701e+00 5.897363e+00 5.981987e+00
5.881437e+00 5.961521e+00 5.971678e+00
5.878470e+00 5.967629e+00 5.971687e+00
5.878229e+00 5.967648e+00 5.972705e+00
5.857999e+00 5.888733e+00 5.969045e+00
5.869262e+00 5.981347e+00 5.927711e+00
5.869352e+00 5.981343e+00 5.928707e+00
5.903708e+00 5.916211e+00 5.921684e+00
5.836169e+00 5.947299e+00 5.971571e+00
5.864329e+00 5.886608e+00 5.973970e+00
5.850752e+00 5.898404e+00 5.973250e+00
5.878396e+00 5.973816e+00 5.971701e+00
5.843801e+00 5.937617e+00 5.981835e+00
5.911827e+00 5.947739e+00 5.945799e+00
5.879548e+00 5.959910e+00 5.951745e+00
5.868866e+00 5.995444e+00 5.898706e+00
5.989772e+00 5.888055e+00 5.974454e+00
5.990194e+00 5.888091e+00 5.973481e+00
5.990568e+00 5.888121e+00 5.972480e+00
5.990908e+00 5.888152e+00 5.971473e+00
5.991173e+00 5.888173e+00 5.970477e+00
5.991410e+00 5.888192e+00 5.969472e+00
5.991618e+00 5.888210e+00 5.968462e+00
5.991714e+00 5.888220e+00 5.967459e+00
5.991732e+00 5.888221e+00 5.966458e+00
5.991766e+00 5.888223e+00 5.965455e+00
5.991845e+00 5.888230e+00 5.964452e+00
5.991824e+00 5.888230e+00 5.963450e+00
5.991639e+00 5.888215e+00 5.962439e+00
5.991450e+00 5.888194e+00 5.961450e+00
5.991134e+00 5.888169e+00 5.960437e+00
5.990854e+00 5.888140e+00 5.959446e+00
5.990434e+00 5.888090e+00 5.958434e+00
5.990071e+00 5.888075e+00 5.957418e+00
5.989583e+00 5.888032e+00 5.956416e+00
5.989047e+00 5.887978e+00 5.955436e+00
5.988195e+00 5.887900e+00 5.954440e+00
5.987139e+00 5.887783e+00 5.953530e+00
5.850977e+00 5.970380e+00 5.950478e+00
5.844059e+00 5.930801e+00 5.962666e+00
5.848608e+00 5.931885e+00 5.950675e+00
5.840393e+00 5.954007e+00 5.958556e+00
5.842851e+00 5.917284e+00 5.958724e+00
5.971087e+00 5.886376e+00 5.947573e+00
5.970615e+00 5.886332e+00 5.946540e+00
5.970251e+00 5.886294e+00 5.945527e+00
5.969908e+00 5.886251e+00 5.944514e+00
5.969595e+00 5.886238e+00 5.943538e+00
5.969093e+00 5.886191e+00 5.942535e+00
5.968446e+00 5.886134e+00 5.941547e+00
5.967593e+00 5.886046e+00 5.940525e+00
5.966602e+00 5.885945e+00 5.939504e+00
5.965739e+00 5.885860e+00 5.938487e+00
5.965108e+00 5.885801e+00 5.937488e+00
5.964407e+00 5.885756e+00 5.936536e+00
5.963667e+00 5.885680e+00 5.935519e+00
5.962886e+00 5.885615e+00 5.934529e+00
5.961380e+00 5.885472e+00 5.933512e+00
5.960124e+00 5.885360e+00 5.932502e+00
5.959296e+00 5.885277e+00 5.931448e+00
5.958529e+00 5.885218e+00 5.930451e+00
5.957577e+00 5.885144e+00 5.929512e+00
5.956192e+00 5.885016e+00 5.928408e+00
5.981481e+00 5.889701e+00 5.950960e+00
5.847145e+00 5.930753e+00 5.978654e+00
5.844800e+00 5.933605e+00 5.962656e+00
5.950599e+00 5.945929e+00 5.945389e+00
5.856456e+00 5.988296e+00 5.915318e+00
5.837252e+00 5.947315e+00 5.978593e+00
5.838037e+00 5.943301e+00 5.985597e+00
5.839656e+00 5.937805e+00 5.969620e+00
5.862582e+00 5.978806e+00 5.901650e+00
5.974055e+00 5.916149e+00 5.977460e+00
5.874695e+00 5.888698e+00 5.984916e+00
5.868486e+00 5.990738e+00 5.905708e+00
5.868349e+00 5.990748e+00 5.907707e+00
5.975617e+00 5.912003e+00 5.951483e+00
5.867946e+00 5.985978e+00 5.901711e+00
5.868132e+00 5.985989e+00 5.905702e+00
5.863274e+00 5.988268e+00 5.896321e+00
5.868203e+00 5.976607e+00 5.923698e+00
5.869474e+00 5.993869e+00 5.895707e+00
5.882152e+00 5.963098e+00 5.962698e+00
5.868968e+00 5.984494e+00 5.926711e+00
5.868988e+00 5.978238e+00 5.932716e+00
5.869212e+00 5.970512e+00 5.947694e+00
5.853865e+00 5.893036e+00 5.967935e+00
5.837652e+00 5.946034e+00 5.991581e+00
5.844662e+00 5.932126e+00 5.960662e+00
5.881894e+00 5.963097e+00 5.960696e+00
5.921647e+00 5.997159e+00 5.928552e+00
5.852607e+00 5.893899e+00 5.963401e+00
5.841508e+00 5.936420e+00 5.964652e+00
5.881647e+00 5.961565e+00 5.970698e+00
5.881909e+00 5.961559e+00 5.969691e+00
5.878004e+00 5.967649e+00 5.974716e+00
5.869150e+00 5.981326e+00 5.921705e+00
5.869108e+00 5.981349e+00 5.931713e+00
5.867471e+00 5.981294e+00 5.938693e+00
5.972117e+00 5.928726e+00 5.965458e+00
5.868385e+00 5.987580e+00 5.905707e+00
5.836162e+00 5.947306e+00 5.972570e+00
5.851479e+00 5.898431e+00 5.976896e+00
5.894890e+00 5.975534e+00 5.950663e+00
5.972599e+00 5.921674e+00 5.949474e+00
5.846875e+00 5.935690e+00 5.984088e+00
5.868004e+00 5.997017e+00 5.899710e+00
5.881687e+00 5.959984e+00 5.955720e+00
5.867671e+00 5.996997e+00 5.900693e+00
5.878241e+00 5.970726e+00 5.971701e+00
5.990551e+00 5.889510e+00 5.972475e+00
5.990910e+00 5.889541e+00 5.971472e+00
5.991183e+00 5.889566e+00 5.970480e+00
5.991421e+00 5.889583e+00 5.969473e+00
5.991615e+00 5.889598e+00 5.968460e+00
5.991652e+00 5.889600e+00 5.967460e+00
5.991717e+00 5.889604e+00 5.966453e+00
5.991743e+00 5.889609e+00 5.965452e+00
5.991734e+00 5.889606e+00 5.964448e+00
5.991609e+00 5.889597e+00 5.963445e+00
5.991384e+00 5.889579e+00 5.962439e+00
5.991145e+00 5.889560e+00 5.961435e+00
5.990878e+00 5.889531e+00 5.960440e+00
5.990592e+00 5.889499e+00 5.959453e+00
5.990169e+00 5.889470e+00 5.958433e+00
5.989786e+00 5.889433e+00 5.957438e+00
5.989354e+00 5.889404e+00 5.956406e+00
5.988917e+00 5.889353e+00 5.955443e+00
5.988253e+00 5.889277e+00 5.954494e+00
5.844887e+00 5.970504e+00 5.959490e+00
5.845835e+00 5.970487e+00 5.958477e+00
5.843828e+00 5.930811e+00 5.963666e+00
5.844296e+00 5.933517e+00 5.964657e+00
5.837813e+00 5.941852e+00 5.965605e+00
5.841369e+00 5.917442e+00 5.972712e+00
5.971591e+00 5.887831e+00 5.947560e+00
5.971128e+00 5.887782e+00 5.946532e+00
5.970751e+00 5.887745e+00 5.945527e+00
5.970368e+00 5.887711e+00 5.944531e+00
5.969967e+00 5.887680e+00 5.943540e+00
5.969371e+00 5.887614e+00 5.942520e+00
5.968656e+00 5.887531e+00 5.941490e+00
5.967952e+00 5.887491e+00 5.940538e+00
5.966862e+00 5.887375e+00 5.939498e+00
5.965887e+00 5.887276e+00 5.938469e+00
5.965281e+00 5.887214e+00 5.937451e+00
5.964716e+00 5.887180e+00 5.936493e+00
5.963939e+00 5.887112e+00 5.935501e+00
5.963269e+00 5.887061e+00 5.934525e+00
5.962272e+00 5.887001e+00 5.933652e+00
5.960288e+00 5.886789e+00 5.932447e+00
5.959361e+00 5.886716e+00 5.931499e+00
5.958364e+00 5.886635e+00 5.930480e+00
5.837965e+00 5.954085e+00 5.966535e+00
5.848977e+00 5.971794e+00 5.953495e+00
5.840467e+00 5.962351e+00 5.974481e+00
5.841126e+00 5.959652e+00 5.985505e+00
5.844392e+00 5.932154e+00 5.963654e+00
5.837013e+00 5.952780e+00 5.974550e+00
5.837316e+00 5.952726e+00 5.968545e+00
5.975482e+00 5.919042e+00 5.956476e+00
5.837923e+00 5.943309e+00 5.986594e+00
5.839528e+00 5.937786e+00 5.968622e+00
5.839482e+00 5.937834e+00 5.966636e+00
5.848865e+00 5.963478e+00 5.951527e+00
5.951199e+00 5.923011e+00 5.929987e+00
5.837298e+00 5.943245e+00 5.975601e+00
5.868391e+00 5.990754e+00 5.906715e+00
5.836610e+00 5.951384e+00 5.971550e+00
5.920792e+00 5.989580e+00 5.931538e+00
5.868088e+00 5.985994e+00 5.904707e+00
5.868182e+00 5.985992e+00 5.906702e+00
5.875553e+00 5.972202e+00 5.980646e+00
5.868259e+00 5.984436e+00 5.910700e+00
5.869109e+00 5.984489e+00 5.924711e+00
5.868871e+00 5.984512e+00 5.927717e+00
5.868707e+00 5.984501e+00 5.928718e+00
5.868994e+00 5.978232e+00 5.930720e+00
5.870064e+00 5.970536e+00 5.948680e+00
5.853694e+00 5.938297e+00 6.001391e+00
5.841067e+00 5.962403e+00 5.985493e+00
5.975640e+00 5.914827e+00 5.952474e+00
5.962834e+00 5.912627e+00 5.932952e+00
5.839006e+00 5.943242e+00 5.981592e+00
5.855034e+00 5.901103e+00 5.985890e+00
5.970770e+00 5.928664e+00 5.975461e+00
5.858722e+00 5.888192e+00 5.969665e+00
5.882152e+00 5.961547e+00 5.968686e+00
5.878137e+00 5.967650e+00 5.973714e+00
5.868344e+00 5.973562e+00 5.938721e+00
5.868966e+00 5.981349e+00 5.932711e+00
5.975831e+00 5.916258e+00 5.968452e+00
5.973847e+00 5.917513e+00 5.949482e+00
5.848005e+00 5.929187e+00 5.949683e+00
5.883022e+00 5.960045e+00 5.962698e+00
5.869227e+00 5.979790e+00 5.927712e+00
5.855135e+00 5.936509e+00 5.999582e+00
5.868552e+00 5.975131e+00 5.938719e+00
5.889938e+00 5.973948e+00 5.955720e+00
5.854476e+00 5.977281e+00 5.941411e+00
5.879990e+00 5.963008e+00 5.973664e+00
5.880346e+00 5.963056e+00 5.972691e+00
5.975036e+00 5.911957e+00 5.949509e+00
5.990334e+00 5.890888e+00 5.972483e+00
5.990691e+00 5.890917e+00 5.971477e+00
5.991014e+00 5.890937e+00 5.970462e+00
5.991254e+00 5.890954e+00 5.969462e+00
5.991397e+00 5.890970e+00 5.968464e+00
5.991523e+00 5.890979e+00 5.967459e+00
5.991541e+00 5.890984e+00 5.966457e+00
5.991596e+00 5.890980e+00 5.965450e+00
5.991511e+00 5.890978e+00 5.964444e+00
5.991377e+00 5.890963e+00 5.963442e+00
5.991145e+00 5.890946e+00 5.962438e+00
5.990904e+00 5.890926e+00 5.961434e+00
5.990571e+00 5.890902e+00 5.960422e+00
5.990278e+00 5.890866e+00 5.959435e+00
5.989921e+00 5.890837e+00 5.958434e+00
5.989552e+00 5.890799e+00 5.957435e+00
5.989192e+00 5.890775e+00 5.956429e+00
5.988677e+00 5.890722e+00 5.955442e+00
5.852050e+00 5.970371e+00 5.949472e+00
5.840548e+00 5.971920e+00 5.964455e+00
5.843689e+00 5.930829e+00 5.964662e+00
5.844640e+00 5.933511e+00 5.963650e+00
5.840417e+00 5.940515e+00 5.979605e+00
5.840488e+00 5.940495e+00 5.980607e+00
5.859131e+00 5.985488e+00 5.910355e+00
5.971920e+00 5.889247e+00 5.947513e+00
5.971536e+00 5.889214e+00 5.946515e+00
5.971257e+00 5.889196e+00 5.945526e+00
5.970858e+00 5.889166e+00 5.944534e+00
5.970357e+00 5.889118e+00 5.943532e+00
5.969714e+00 5.889060e+00 5.942540e+00
5.969006e+00 5.888979e+00 5.941509e+00
5.968340e+00 5.888929e+00 5.940530e+00
5.967337e+00 5.888836e+00 5.939524e+00
5.966336e+00 5.888736e+00 5.938513e+00
5.965609e+00 5.888663e+00 5.937492e+00
5.964977e+00 5.888611e+00 5.936483e+00
5.964207e+00 5.888547e+00 5.935486e+00
5.963525e+00 5.888493e+00 5.934520e+00
5.962563e+00 5.888421e+00 5.933610e+00
5.960085e+00 5.888192e+00 5.932365e+00
5.959100e+00 5.888110e+00 5.931500e+00
5.849144e+00 5.969036e+00 5.952450e+00
5.857944e+00 5.979926e+00 5.919386e+00
5.848473e+00 5.971812e+00 5.954472e+00
5.890395e+00 5.944394e+00 5.939456e+00
5.840820e+00 5.962356e+00 5.975479e+00
5.842263e+00 5.976025e+00 5.974392e+00
5.844631e+00 5.932142e+00 5.962655e+00
5.851853e+00 5.963421e+00 5.947556e+00
5.858932e+00 6.005253e+00 5.896360e+00
5.840853e+00 5.943080e+00 5.956596e+00
5.837830e+00 5.943320e+00 5.987596e+00
5.839518e+00 5.937773e+00 5.967624e+00
5.944684e+00 5.935871e+00 5.934267e+00
5.926480e+00 5.950511e+00 5.944629e+00
5.911103e+00 5.933379e+00 5.930965e+00
5.843947e+00 5.947037e+00 5.950563e+00
5.868479e+00 5.990734e+00 5.904706e+00
5.975859e+00 5.912026e+00 5.952482e+00
5.868378e+00 5.995426e+00 5.900692e+00
5.868003e+00 5.985974e+00 5.903708e+00
5.869011e+00 5.992294e+00 5.898704e+00
5.895808e+00 5.861999e+00 6.000033e+00
5.852240e+00 5.999438e+00 5.905248e+00
5.843816e+00 5.953896e+00 5.952606e+00
5.846493e+00 5.970478e+00 5.957433e+00
5.868993e+00 5.978233e+00 5.931717e+00
5.868996e+00 5.978229e+00 5.929718e+00
5.906551e+00 5.945835e+00 5.943903e+00
5.871187e+00 5.859580e+00 5.996835e+00
5.844709e+00 5.928015e+00 5.956699e+00
5.844517e+00 5.936330e+00 5.976619e+00
5.841128e+00 5.947131e+00 5.956608e+00
5.952378e+00 5.910944e+00 5.926658e+00
5.839714e+00 5.967872e+00 5.978466e+00
5.841144e+00 5.962410e+00 5.987487e+00
5.859497e+00 5.887746e+00 5.970226e+00
5.882322e+00 5.961567e+00 5.967692e+00
5.881116e+00 5.961514e+00 5.955721e+00
5.868301e+00 5.973582e+00 5.945722e+00
5.868319e+00 5.973594e+00 5.946716e+00
5.878357e+00 5.975353e+00 5.969692e+00
5.869207e+00 5.898411e+00 5.992918e+00
5.870034e+00 5.995449e+00 5.891559e+00
5.840852e+00 5.966522e+00 5.981467e+00
5.976250e+00 5.916283e+00 5.957472e+00
5.880082e+00 5.969194e+00 5.965655e+00
5.921193e+00 5.991097e+00 5.932534e+00
5.868545e+00 5.975129e+00 5.937721e+00
5.868420e+00 5.975122e+00 5.936722e+00
5.862701e+00 5.898289e+00 5.989906e+00
5.854633e+00 5.892548e+00 5.968548e+00
5.868863e+00 5.981311e+00 5.918700e+00
5.989916e+00 5.892225e+00 5.972460e+00
5.990285e+00 5.892258e+00 5.971461e+00
5.990561e+00 5.892295e+00 5.970473e+00
5.990803e+00 5.892312e+00 5.969469e+00
5.991091e+00 5.892314e+00 5.968450e+00
5.991256e+00 5.892337e+00 5.967494e+00
5.991286e+00 5.892350e+00 5.966450e+00
5.991265e+00 5.892344e+00 5.965449e+00
5.991171e+00 5.892344e+00 5.964440e+00
5.991041e+00 5.892331e+00 5.963437e+00
5.990895e+00 5.892311e+00 5.962437e+00
5.990638e+00 5.892285e+00 5.961439e+00
5.990310e+00 5.892268e+00 5.960427e+00
5.989947e+00 5.892236e+00 5.959424e+00
5.989646e+00 5.892190e+00 5.958446e+00
5.989215e+00 5.892179e+00 5.957418e+00
5.988798e+00 5.892120e+00 5.956444e+00
5.861478e+00 5.988280e+00 5.901322e+00
5.857139e+00 5.968858e+00 5.942431e+00
5.838591e+00 5.950086e+00 5.992551e+00
5.842184e+00 5.936359e+00 5.971620e+00
5.892961e+00 5.932987e+00 5.932538e+00
5.840123e+00 5.940473e+00 5.978665e+00
5.973034e+00 5.890742e+00 5.949463e+00
5.972560e+00 5.890708e+00 5.948515e+00
5.972152e+00 5.890679e+00 5.947519e+00
5.971959e+00 5.890679e+00 5.946540e+00
5.971638e+00 5.890634e+00 5.945525e+00
5.971246e+00 5.890603e+00 5.944529e+00
5.970653e+00 5.890534e+00 5.943510e+00
5.970132e+00 5.890491e+00 5.942517e+00
5.969591e+00 5.890453e+00 5.941536e+00
5.968958e+00 5.890395e+00 5.940541e+00
5.968099e+00 5.890307e+00 5.939518e+00
5.967138e+00 5.890248e+00 5.938578e+00
5.966091e+00 5.890125e+00 5.937499e+00
5.965254e+00 5.890040e+00 5.936455e+00
5.964559e+00 5.889994e+00 5.935505e+00
5.963655e+00 5.889916e+00 5.934514e+00
5.962604e+00 5.889828e+00 5.933556e+00
5.959741e+00 5.889565e+00 5.932310e+00
5.958657e+00 5.889474e+00 5.931418e+00
5.957883e+00 5.889370e+00 5.930621e+00
5.956437e+00 5.889282e+00 5.929497e+00
5.897724e+00 5.948154e+00 5.947522e+00
5.868072e+00 5.999976e+00 5.890727e+00
5.895046e+00 5.949138e+00 5.946468e+00
5.860072e+00 5.979837e+00 5.905371e+00
5.844659e+00 5.932135e+00 5.961660e+00
5.838725e+00 5.951438e+00 5.990543e+00
5.837674e+00 5.951325e+00 5.964556e+00
5.840319e+00 5.943103e+00 5.957612e+00
5.837807e+00 5.943322e+00 5.988594e+00
5.838435e+00 5.954059e+00 5.963535e+00
5.902539e+00 5.860721e+00 5.922389e+00
5.837703e+00 5.944538e+00 5.963595e+00
5.968456e+00 5.925328e+00 5.943553e+00
5.862335e+00 5.984023e+00 5.898343e+00
5.868622e+00 5.990730e+00 5.902706e+00
5.868494e+00 5.990730e+00 5.903707e+00
5.868122e+00 5.976678e+00 5.941717e+00
5.975406e+00 5.919054e+00 5.967459e+00
5.869172e+00 5.992293e+00 5.897707e+00
5.868304e+00 5.986002e+00 5.907696e+00
5.841257e+00 5.962415e+00 5.988485e+00
5.886093e+00 5.970753e+00 5.954697e+00
5.880168e+00 5.891275e+00 5.989116e+00
5.859172e+00 5.971942e+00 5.924100e+00
5.857449e+00 5.890127e+00 5.971251e+00
5.913041e+00 5.946128e+00 5.943532e+00
5.906346e+00 5.860257e+00 6.005575e+00
5.897936e+00 5.860419e+00 6.001898e+00
5.878671e+00 5.969159e+00 5.969663e+00
5.868502e+00 5.987620e+00 5.919706e+00
5.971901e+00 5.928730e+00 5.967460e+00
5.929255e+00 5.934733e+00 5.931515e+00
5.976117e+00 5.912048e+00 5.954480e+00
5.922080e+00 5.998697e+00 5.924600e+00
5.855637e+00 5.894179e+00 5.977922e+00
5.880723e+00 5.961510e+00 5.954712e+00
5.880155e+00 5.961495e+00 5.953713e+00
5.921069e+00 5.941311e+00 5.936512e+00
5.855190e+00 5.898849e+00 5.984319e+00
5.861987e+00 5.971978e+00 5.922718e+00
5.841608e+00 5.938626e+00 5.976896e+00
5.880891e+00 5.896969e+00 5.993249e+00
5.868294e+00 5.989161e+00 5.914702e+00
5.881004e+00 5.963052e+00 5.970676e+00
5.868653e+00 6.001716e+00 5.892675e+00
5.898284e+00 5.951082e+00 5.960179e+00
5.868457e+00 5.987600e+00 5.920703e+00
5.858050e+00 5.892988e+00 5.979458e+00
5.899695e+00 5.859923e+00 6.002721e+00
5.864865e+00 5.886947e+00 5.975566e+00
5.852988e+00 5.984176e+00 5.928373e+00
5.989670e+00 5.893588e+00 5.971456e+00
5.989907e+00 5.893644e+00 5.970531e+00
5.990211e+00 5.893664e+00 5.969474e+00
5.990506e+00 5.893655e+00 5.968455e+00
5.990752e+00 5.893687e+00 5.967494e+00
5.990789e+00 5.893700e+00 5.966454e+00
5.990779e+00 5.893694e+00 5.965447e+00
5.990692e+00 5.893704e+00 5.964439e+00
5.990575e+00 5.893697e+00 5.963433e+00
5.990415e+00 5.893663e+00 5.962438e+00
5.990155e+00 5.893636e+00 5.961440e+00
5.989809e+00 5.893613e+00 5.960432e+00
5.989508e+00 5.893558e+00 5.959456e+00
5.989070e+00 5.893548e+00 5.958433e+00
5.846111e+00 5.921125e+00 5.949720e+00
5.841765e+00 5.922772e+00 5.961714e+00
5.930167e+00 5.934451e+00 5.931805e+00
5.855766e+00 5.974424e+00 5.926430e+00
5.869182e+00 5.997020e+00 5.895709e+00
5.846964e+00 5.933467e+00 5.977665e+00
5.846232e+00 5.932021e+00 5.955672e+00
5.973669e+00 5.892156e+00 5.950504e+00
5.973219e+00 5.892168e+00 5.949499e+00
5.972897e+00 5.892153e+00 5.948525e+00
5.972583e+00 5.892142e+00 5.947544e+00
5.972275e+00 5.892097e+00 5.946521e+00
5.972006e+00 5.892073e+00 5.945526e+00
5.971617e+00 5.892040e+00 5.944533e+00
5.971017e+00 5.891978e+00 5.943515e+00
5.970526e+00 5.891929e+00 5.942508e+00
5.970029e+00 5.891879e+00 5.941500e+00
5.969458e+00 5.891845e+00 5.940542e+00
5.968618e+00 5.891758e+00 5.939505e+00
5.967700e+00 5.891685e+00 5.938532e+00
5.966600e+00 5.891580e+00 5.937491e+00
5.965588e+00 5.891491e+00 5.936489e+00
5.964769e+00 5.891429e+00 5.935540e+00
5.963747e+00 5.891338e+00 5.934549e+00
5.962583e+00 5.891236e+00 5.933584e+00
5.959826e+00 5.890971e+00 5.932372e+00
5.959063e+00 5.890927e+00 5.931543e+00
5.958271e+00 5.890865e+00 5.930576e+00
5.957302e+00 5.890800e+00 5.929670e+00
5.874418e+00 5.950260e+00 5.945440e+00
5.950658e+00 5.927044e+00 5.931701e+00
5.889276e+00 5.950306e+00 5.945263e+00
5.900548e+00 5.941488e+00 5.938476e+00
5.956535e+00 5.945024e+00 5.950396e+00
5.844948e+00 5.933469e+00 5.960638e+00
5.839865e+00 5.943117e+00 5.958613e+00
5.837762e+00 5.943320e+00 5.989591e+00
5.839302e+00 5.943135e+00 5.959616e+00
5.838832e+00 5.943149e+00 5.960603e+00
5.838433e+00 5.939180e+00 5.967622e+00
5.837376e+00 5.944553e+00 5.964600e+00
5.969824e+00 5.928632e+00 5.978486e+00
5.841890e+00 5.945755e+00 5.954596e+00
5.881977e+00 5.987116e+00 5.946500e+00
5.855751e+00 5.974422e+00 5.927427e+00
5.868418e+00 5.976686e+00 5.939721e+00
5.868386e+00 5.976681e+00 5.940713e+00
5.974646e+00 5.923232e+00 5.962460e+00
5.868497e+00 5.986017e+00 5.909703e+00
5.857694e+00 5.889379e+00 5.970184e+00
5.868347e+00 5.970472e+00 5.944716e+00
5.885831e+00 5.970736e+00 5.955723e+00
5.880018e+00 5.987123e+00 5.948439e+00
5.858170e+00 5.889586e+00 5.971868e+00
5.881750e+00 5.964633e+00 5.962693e+00
5.881667e+00 5.964641e+00 5.961692e+00
5.853723e+00 5.989703e+00 5.916323e+00
5.847959e+00 5.967677e+00 5.954461e+00
5.869109e+00 5.979796e+00 5.933716e+00
5.836858e+00 5.943240e+00 5.971594e+00
5.876419e+00 5.969152e+00 5.980714e+00
5.973583e+00 5.916120e+00 5.978474e+00
5.841584e+00 5.947114e+00 5.955606e+00
5.877749e+00 5.967619e+00 5.976685e+00
5.878387e+00 5.963021e+00 5.977707e+00
5.882626e+00 5.961584e+00 5.964695e+00
5.879555e+00 5.961462e+00 5.952736e+00
5.878056e+00 5.970729e+00 5.972692e+00
5.881876e+00 5.963088e+00 5.966689e+00
5.882032e+00 5.963098e+00 5.965692e+00
5.868793e+00 5.979787e+00 5.935710e+00
5.857443e+00 5.939054e+00 6.003422e+00
5.858479e+00 5.939142e+00 6.003582e+00
5.870244e+00 5.885041e+00 5.974814e+00
5.868622e+00 6.001691e+00 5.891697e+00
5.976260e+00 5.912059e+00 5.955478e+00
5.921894e+00 5.998660e+00 5.926532e+00
5.866995e+00 5.861148e+00 5.994554e+00
5.914619e+00 6.010925e+00 5.931562e+00
5.897186e+00 5.860813e+00 6.001359e+00
5.860897e+00 5.891386e+00 5.979676e+00
5.868384e+00 5.987554e+00 5.899712e+00
5.974198e+00 5.918942e+00 5.951493e+00
5.973814e+00 5.918912e+00 5.950493e+00
5.989676e+00 5.894980e+00 5.968456e+00
5.989949e+00 5.895019e+00 5.967444e+00
5.989956e+00 5.895042e+00 5.966322e+00
5.989994e+00 5.894976e+00 5.965452e+00
5.839871e+00 5.937794e+00 5.970621e+00
5.971935e+00 5.924496e+00 5.976471e+00
5.972699e+00 5.924547e+00 5.973466e+00
5.972905e+00 5.924541e+00 5.972457e+00
5.988950e+00 5.894923e+00 5.960439e+00
5.988545e+00 5.894859e+00 5.959459e+00
5.972455e+00 5.927313e+00 5.954473e+00
5.972803e+00 5.927322e+00 5.956472e+00
5.896138e+00 5.947212e+00 5.944530e+00
5.851517e+00 5.933072e+00 5.947717e+00
5.848324e+00 5.933433e+00 5.979647e+00
5.847581e+00 5.933451e+00 5.978658e+00
5.844881e+00 5.930822e+00 5.972654e+00
5.974234e+00 5.893663e+00 5.951497e+00
5.973827e+00 5.893629e+00 5.950507e+00
5.973464e+00 5.893593e+00 5.949501e+00
5.973186e+00 5.893574e+00 5.948508e+00
5.972941e+00 5.893548e+00 5.947512e+00
5.972683e+00 5.893526e+00 5.946507e+00
5.972381e+00 5.893508e+00 5.945527e+00
5.971884e+00 5.893462e+00 5.944524e+00
5.971295e+00 5.893401e+00 5.943504e+00
5.970790e+00 5.893354e+00 5.942500e+00
5.970278e+00 5.893311e+00 5.941501e+00
5.969644e+00 5.893255e+00 5.940497e+00
5.968854e+00 5.893190e+00 5.939519e+00
5.967836e+00 5.893101e+00 5.938522e+00
5.966834e+00 5.893013e+00 5.937510e+00
5.965816e+00 5.892926e+00 5.936509e+00
5.964791e+00 5.892837e+00 5.935519e+00
5.963645e+00 5.892739e+00 5.934521e+00
5.962281e+00 5.892613e+00 5.933481e+00
5.960520e+00 5.892450e+00 5.932463e+00
5.959802e+00 5.892409e+00 5.931560e+00
5.958913e+00 5.892331e+00 5.930558e+00
5.957990e+00 5.892268e+00 5.929602e+00
5.904918e+00 5.947619e+00 5.948041e+00
5.924505e+00 5.924591e+00 5.928250e+00
5.953811e+00 5.946895e+00 5.950386e+00
5.888254e+00 5.950375e+00 5.945199e+00
5.841056e+00 5.959655e+00 5.986508e+00
5.845298e+00 5.933442e+00 5.959633e+00
5.952400e+00 5.945318e+00 5.946041e+00
5.837780e+00 5.943333e+00 5.991596e+00
5.842128e+00 5.943053e+00 5.954620e+00
5.855228e+00 5.988253e+00 5.917290e+00
5.837181e+00 5.952736e+00 5.969542e+00
5.837218e+00 5.944557e+00 5.965589e+00
5.921315e+00 5.994295e+00 5.926697e+00
5.842247e+00 5.945738e+00 5.953597e+00
5.842687e+00 5.945732e+00 5.952598e+00
5.867408e+00 5.984372e+00 5.901712e+00
5.868483e+00 5.989173e+00 5.909704e+00
5.868684e+00 5.976684e+00 5.935719e+00
5.891461e+00 5.974006e+00 5.953673e+00
5.868406e+00 5.986008e+00 5.908702e+00
5.975464e+00 5.914803e+00 5.951490e+00
5.853344e+00 5.935637e+00 5.998089e+00
5.838306e+00 5.951414e+00 5.981555e+00
5.868073e+00 5.989190e+00 5.916709e+00
5.869060e+00 5.986041e+00 5.916705e+00
5.861236e+00 5.935392e+00 5.994726e+00
5.881628e+00 5.964632e+00 5.960694e+00
5.867496e+00 5.984454e+00 5.933701e+00
5.899971e+00 5.863018e+00 5.922103e+00
5.839520e+00 5.939240e+00 5.989614e+00
5.869133e+00 5.979798e+00 5.931716e+00
5.868270e+00 5.989205e+00 5.912708e+00
5.882482e+00 5.961578e+00 5.966694e+00
5.851556e+00 5.934167e+00 5.993512e+00
5.868305e+00 5.982858e+00 5.913694e+00
5.838573e+00 5.947201e+00 5.960576e+00
5.891730e+00 5.973990e+00 5.950644e+00
5.868186e+00 5.975077e+00 5.929718e+00
5.867781e+00 5.979685e+00 5.915682e+00
5.865430e+00 5.902740e+00 5.993781e+00
5.878154e+00 5.969165e+00 5.971680e+00
5.881459e+00 5.963080e+00 5.968689e+00
5.881195e+00 5.963080e+00 5.969693e+00
5.851063e+00 5.940393e+00 6.000879e+00
5.884179e+00 5.949711e+00 5.943933e+00
5.848288e+00 5.934999e+00 5.993886e+00
5.921083e+00 5.991506e+00 5.929921e+00
5.972381e+00 5.917378e+00 5.945513e+00
5.879687e+00 5.969188e+00 5.966665e+00
5.920793e+00 6.002695e+00 5.922707e+00
5.841867e+00 5.962369e+00 5.980491e+00
5.850438e+00 5.899047e+00 5.974395e+00
5.868826e+00 5.989116e+00 5.896712e+00
5.920792e+00 6.001692e+00 5.926543e+00
5.868042e+00 5.986022e+00 5.928701e+00
5.843469e+00 5.965000e+00 5.961497e+00
5.856276e+00 5.982735e+00 5.925367e+00
5.868633e+00 5.987614e+00 5.916706e+00
5.882655e+00 5.960060e+00 5.960692e+00
5.876828e+00 5.969159e+00 5.978707e+00
5.971567e+00 5.924476e+00 5.977473e+00
5.843628e+00 5.970532e+00 5.960546e+00
5.968210e+00 5.927088e+00 5.944444e+00
5.969177e+00 5.927121e+00 5.946471e+00
5.971004e+00 5.927184e+00 5.950508e+00
5.971839e+00 5.927284e+00 5.952474e+00
5.841271e+00 5.975959e+00 5.968433e+00
5.841991e+00 5.926842e+00 5.967678e+00
5.844298e+00 5.930836e+00 5.970650e+00
5.844737e+00 5.933542e+00 5.971642e+00
5.843732e+00 5.930838e+00 5.967655e+00
5.843906e+00 5.930847e+00 5.968659e+00
5.841365e+00 5.965147e+00 5.984473e+00
5.974430e+00 5.895091e+00 5.951520e+00
5.974090e+00 5.895054e+00 5.950503e+00
5.973842e+00 5.895032e+00 5.949500e+00
5.973558e+00 5.895009e+00 5.948509e+00
5.973238e+00 5.894968e+00 5.947488e+00
5.972970e+00 5.894949e+00 5.946494e+00
5.972570e+00 5.894917e+00 5.945501e+00
5.972065e+00 5.894873e+00 5.944497e+00
