6.040566e+00 5.976068e+00 6.044412e+00
6.041577e+00 5.976100e+00 6.044124e+00
6.042426e+00 5.976099e+00 6.043592e+00
6.043236e+00 5.976114e+00 6.042993e+00
6.044025e+00 5.976105e+00 6.042386e+00
6.044900e+00 5.976108e+00 6.041896e+00
6.045843e+00 5.976131e+00 6.041507e+00
6.046835e+00 5.976136e+00 6.041191e+00
6.047774e+00 5.976168e+00 6.040776e+00
6.048619e+00 5.976202e+00 6.040235e+00
6.049398e+00 5.976192e+00 6.039596e+00
6.050121e+00 5.976170e+00 6.038867e+00
6.050808e+00 5.976159e+00 6.038105e+00
6.051408e+00 5.976116e+00 6.037191e+00
6.052008e+00 5.976105e+00 6.036321e+00
6.052676e+00 5.976104e+00 6.035537e+00
6.053433e+00 5.976102e+00 6.034871e+00
6.054279e+00 5.976098e+00 6.034333e+00
6.055075e+00 5.976081e+00 6.033730e+00
6.055870e+00 5.976098e+00 6.033121e+00
6.056701e+00 5.976102e+00 6.032562e+00
6.057628e+00 5.976129e+00 6.032140e+00
6.058588e+00 5.976150e+00 6.031775e+00
6.059555e+00 5.976169e+00 6.031424e+00
6.060394e+00 5.976173e+00 6.030878e+00
6.061186e+00 5.976179e+00 6.030266e+00
6.061904e+00 5.976166e+00 6.029541e+00
6.062610e+00 5.976149e+00 6.028797e+00
6.063281e+00 5.976126e+00 6.027986e+00
6.063930e+00 5.976114e+00 6.027191e+00
6.064628e+00 5.976102e+00 6.026439e+00
6.065321e+00 5.976085e+00 6.025686e+00
6.065956e+00 5.976065e+00 6.024842e+00
6.066560e+00 5.976043e+00 6.023978e+00
6.067115e+00 5.976000e+00 6.022977e+00
6.067667e+00 5.975968e+00 6.022025e+00
6.068229e+00 5.975922e+00 6.021070e+00
6.068785e+00 5.975864e+00 6.020043e+00
6.069296e+00 5.975826e+00 6.019062e+00
6.069797e+00 5.975770e+00 6.018012e+00
6.070314e+00 5.975719e+00 6.016968e+00
6.009181e+00 6.084927e+00 5.972533e+00
6.050658e+00 6.009503e+00 6.031044e+00
5.971719e+00 6.034523e+00 6.027267e+00
5.985494e+00 6.065663e+00 5.994415e+00
6.051529e+00 6.009484e+00 6.030530e+00
6.056222e+00 6.008229e+00 6.028545e+00
6.055495e+00 6.008204e+00 6.029252e+00
6.042966e+00 5.997507e+00 6.040977e+00
6.016549e+00 6.073168e+00 5.972633e+00
6.050258e+00 6.006876e+00 6.033985e+00
6.071563e+00 5.999369e+00 6.003215e+00
6.071688e+00 5.999376e+00 6.000216e+00
6.067183e+00 5.993371e+00 5.980264e+00
5.963202e+00 6.075746e+00 5.942461e+00
6.069223e+00 5.999180e+00 5.988251e+00
6.070478e+00 5.999265e+00 5.991251e+00
5.963859e+00 6.020259e+00 6.031701e+00
5.971822e+00 6.045775e+00 6.020354e+00
5.997113e+00 6.074528e+00 5.983138e+00
6.022067e+00 6.005835e+00 6.035229e+00
6.020965e+00 6.005874e+00 6.035542e+00
5.964916e+00 6.034487e+00 6.031486e+00
6.052507e+00 6.009528e+00 6.030196e+00
6.011938e+00 6.033892e+00 6.003941e+00
6.069607e+00 5.999254e+00 6.016217e+00
5.965054e+00 6.037284e+00 6.029934e+00
5.970965e+00 6.034525e+00 6.027935e+00
6.012142e+00 6.066038e+00 5.979532e+00
6.016241e+00 6.070268e+00 5.974038e+00
6.015891e+00 6.070270e+00 5.975175e+00
6.015296e+00 6.070276e+00 5.976062e+00
6.013066e+00 6.070227e+00 5.978113e+00
6.010197e+00 6.070208e+00 5.979203e+00
6.000222e+00 6.060209e+00 5.985991e+00
5.977143e+00 6.020373e+00 6.024500e+00
5.977554e+00 6.033053e+00 6.021627e+00
5.959643e+00 6.038799e+00 6.036213e+00
6.011592e+00 6.065618e+00 5.980136e+00
5.945565e+00 6.052100e+00 5.991218e+00
6.067715e+00 6.008972e+00 5.993239e+00
5.960495e+00 6.034587e+00 6.037421e+00
5.933739e+00 6.020833e+00 6.008366e+00
6.049859e+00 6.016123e+00 6.028129e+00
6.063639e+00 5.998957e+00 6.026959e+00
5.983216e+00 6.062743e+00 5.996411e+00
5.996702e+00 6.068679e+00 5.986047e+00
5.964612e+00 6.064756e+00 5.952455e+00
6.008580e+00 6.083442e+00 5.973415e+00
6.010945e+00 6.067345e+00 5.982088e+00
5.978804e+00 5.974716e+00 6.031058e+00
6.052854e+00 6.002944e+00 6.034217e+00
6.059749e+00 5.997719e+00 6.031867e+00
5.978758e+00 6.031657e+00 6.019966e+00
5.975394e+00 6.034492e+00 6.023802e+00
5.977846e+00 6.030253e+00 6.022080e+00
5.944180e+00 5.998565e+00 5.984484e+00
5.932891e+00 6.026273e+00 6.016340e+00
5.991305e+00 6.068613e+00 5.988775e+00
6.041801e+00 6.025352e+00 6.025291e+00
6.012250e+00 6.076066e+00 5.973389e+00
6.055929e+00 6.018865e+00 6.022854e+00
5.960345e+00 6.017342e+00 6.033577e+00
5.968722e+00 6.027466e+00 6.031683e+00
5.937326e+00 6.000413e+00 6.005475e+00
6.012783e+00 6.068812e+00 5.979464e+00
5.962173e+00 6.021932e+00 6.038155e+00
5.961687e+00 6.021933e+00 6.039158e+00
5.957535e+00 6.029042e+00 6.043711e+00
6.056074e+00 6.000350e+00 6.033592e+00
5.974437e+00 6.040064e+00 6.020674e+00
6.036076e+00 5.977353e+00 6.046695e+00
6.036975e+00 5.977364e+00 6.046245e+00
6.037800e+00 5.977369e+00 6.045676e+00
6.038691e+00 5.977382e+00 6.045213e+00
6.039708e+00 5.977408e+00 6.044937e+00
6.040772e+00 5.977459e+00 6.044702e+00
6.041618e+00 5.977455e+00 6.044179e+00
6.042427e+00 5.977467e+00 6.043584e+00
6.043178e+00 5.977444e+00 6.042927e+00
6.044073e+00 5.977441e+00 6.042478e+00
6.045129e+00 5.977491e+00 6.042238e+00
6.046165e+00 5.977512e+00 6.041992e+00
6.047107e+00 5.977544e+00 6.041582e+00
6.047987e+00 5.977562e+00 6.041093e+00
6.048762e+00 5.977552e+00 6.040453e+00
6.049519e+00 5.977549e+00 6.039783e+00
6.050282e+00 5.977546e+00 6.039122e+00
6.050997e+00 5.977527e+00 6.038385e+00
6.051647e+00 5.977528e+00 6.037592e+00
6.052222e+00 5.977495e+00 6.036655e+00
6.052836e+00 5.977483e+00 6.035788e+00
6.053665e+00 5.977474e+00 6.035197e+00
6.054560e+00 5.977500e+00 6.034741e+00
6.055443e+00 5.977470e+00 6.034278e+00
6.056284e+00 5.977511e+00 6.033735e+00
6.056998e+00 5.977488e+00 6.033008e+00
6.057814e+00 5.977498e+00 6.032429e+00
6.058651e+00 5.977497e+00 6.031884e+00
6.059540e+00 5.977513e+00 6.031409e+00
6.060430e+00 5.977526e+00 6.030939e+00
6.061299e+00 5.977543e+00 6.030442e+00
6.062060e+00 5.977536e+00 6.029786e+00
6.062775e+00 5.977521e+00 6.029056e+00
6.063418e+00 5.977498e+00 6.028219e+00
6.063943e+00 5.977457e+00 6.027204e+00
6.064606e+00 5.977445e+00 6.026423e+00
6.065304e+00 5.977430e+00 6.025672e+00
6.065957e+00 5.977409e+00 6.024841e+00
6.066577e+00 5.977386e+00 6.023988e+00
6.067193e+00 5.977365e+00 6.023133e+00
6.067736e+00 5.977321e+00 6.022124e+00
6.068309e+00 5.977278e+00 6.021173e+00
6.068869e+00 5.977236e+00 6.020214e+00
6.069370e+00 5.977183e+00 6.019161e+00
6.069875e+00 5.977141e+00 6.018176e+00
6.070344e+00 5.977077e+00 6.017040e+00
6.070811e+00 5.977011e+00 6.015902e+00
6.071279e+00 5.976965e+00 6.014836e+00
5.936289e+00 6.039839e+00 6.004270e+00
5.950599e+00 6.079819e+00 5.941057e+00
6.036926e+00 6.025246e+00 6.027000e+00
6.019284e+00 6.006027e+00 6.035433e+00
5.959699e+00 5.966557e+00 6.011151e+00
6.069779e+00 6.004886e+00 5.996223e+00
6.069717e+00 5.990763e+00 5.985257e+00
5.940220e+00 6.043877e+00 5.995258e+00
5.976760e+00 6.025981e+00 6.023962e+00
5.941227e+00 6.012390e+00 5.996399e+00
5.962842e+00 6.058390e+00 5.954432e+00
5.998158e+00 6.013867e+00 5.971557e+00
5.999285e+00 6.014070e+00 5.971336e+00
6.062762e+00 6.008158e+00 6.022188e+00
5.964539e+00 6.024636e+00 6.034519e+00
5.964363e+00 6.067767e+00 5.934399e+00
6.066591e+00 6.004082e+00 6.018851e+00
5.942484e+00 6.012435e+00 6.015397e+00
6.072032e+00 5.995183e+00 6.006214e+00
6.016126e+00 6.079045e+00 5.968453e+00
5.990741e+00 6.058426e+00 5.993197e+00
5.944642e+00 5.983023e+00 6.016684e+00
6.070503e+00 5.999317e+00 6.013222e+00
5.948592e+00 6.053434e+00 5.988170e+00
5.984904e+00 6.053980e+00 5.995251e+00
5.980527e+00 6.032886e+00 6.015324e+00
5.992746e+00 6.059891e+00 5.992603e+00
5.993573e+00 6.059894e+00 5.992038e+00
5.994444e+00 6.059932e+00 5.991541e+00
5.997641e+00 6.060004e+00 5.989144e+00
5.978334e+00 6.056928e+00 6.001619e+00
6.037974e+00 6.021213e+00 6.028511e+00
6.068461e+00 5.990662e+00 5.982252e+00
5.960228e+00 6.038790e+00 6.035259e+00
6.070760e+00 5.993653e+00 5.988246e+00
5.975170e+00 6.051046e+00 6.006464e+00
5.968265e+00 6.048662e+00 6.024062e+00
6.067900e+00 6.009015e+00 5.994223e+00
6.050817e+00 6.016137e+00 6.027760e+00
6.002897e+00 6.074546e+00 5.979189e+00
6.002046e+00 6.065836e+00 5.988527e+00
6.052491e+00 6.001646e+00 6.035453e+00
5.982513e+00 6.062731e+00 5.997150e+00
5.997722e+00 6.068644e+00 5.985747e+00
6.003282e+00 6.078989e+00 5.978024e+00
6.000443e+00 6.083447e+00 5.982760e+00
5.963904e+00 6.075741e+00 5.940457e+00
6.006423e+00 6.063139e+00 5.984307e+00
6.053448e+00 6.009528e+00 6.029792e+00
5.980769e+00 6.056923e+00 5.999862e+00
5.962095e+00 6.037325e+00 6.032651e+00
5.969379e+00 6.034518e+00 6.029160e+00
6.071201e+00 5.997899e+00 5.992255e+00
5.938214e+00 6.007118e+00 6.002441e+00
5.973134e+00 6.030284e+00 6.027558e+00
6.002422e+00 6.068684e+00 5.983771e+00
6.042717e+00 6.025397e+00 6.024861e+00
6.057299e+00 6.018831e+00 6.021316e+00
6.056630e+00 6.018865e+00 6.022100e+00
6.004230e+00 6.064535e+00 5.988214e+00
6.072565e+00 5.993804e+00 6.000221e+00
5.940760e+00 6.023178e+00 5.990260e+00
6.072162e+00 5.992367e+00 6.007218e+00
6.063406e+00 6.005520e+00 6.023107e+00
6.070627e+00 5.996459e+00 5.989249e+00
5.965966e+00 6.048737e+00 6.027819e+00
6.062304e+00 6.014769e+00 6.017974e+00
6.044877e+00 6.023200e+00 5.979432e+00
6.036150e+00 5.978702e+00 6.046840e+00
6.037026e+00 5.978714e+00 6.046337e+00
6.037873e+00 5.978720e+00 6.045822e+00
6.038820e+00 5.978739e+00 6.045438e+00
6.039944e+00 5.978791e+00 6.045284e+00
6.040905e+00 5.978810e+00 6.044926e+00
6.041732e+00 5.978813e+00 6.044363e+00
6.042489e+00 5.978803e+00 6.043715e+00
6.043402e+00 5.978816e+00 6.043262e+00
6.044439e+00 5.978831e+00 6.043029e+00
6.045501e+00 5.978880e+00 6.042801e+00
6.046451e+00 5.978909e+00 6.042411e+00
6.047302e+00 5.978907e+00 6.041882e+00
6.048104e+00 5.978922e+00 6.041274e+00
6.048836e+00 5.978898e+00 6.040562e+00
6.049621e+00 5.978914e+00 6.039947e+00
6.050401e+00 5.978905e+00 6.039308e+00
6.051165e+00 5.978897e+00 6.038647e+00
6.051846e+00 5.978890e+00 6.037877e+00
6.052399e+00 5.978830e+00 6.036892e+00
6.052996e+00 5.978859e+00 6.036037e+00
6.053911e+00 5.978882e+00 6.035576e+00
6.054810e+00 5.978870e+00 6.035135e+00
6.055763e+00 5.978897e+00 6.034748e+00
6.056627e+00 5.978876e+00 6.034251e+00
6.057360e+00 5.978887e+00 6.033547e+00
6.058146e+00 5.978874e+00 6.032923e+00
6.058908e+00 5.978871e+00 6.032265e+00
6.059631e+00 5.978851e+00 6.031549e+00
6.060463e+00 5.978881e+00 6.031002e+00
6.061321e+00 5.978879e+00 6.030478e+00
6.062132e+00 5.978885e+00 6.029895e+00
6.062892e+00 5.978881e+00 6.029232e+00
6.063531e+00 5.978858e+00 6.028394e+00
6.064098e+00 5.978827e+00 6.027452e+00
6.064699e+00 5.978794e+00 6.026537e+00
6.065340e+00 5.978772e+00 6.025697e+00
6.065969e+00 5.978762e+00 6.024896e+00
6.066590e+00 5.978741e+00 6.024045e+00
6.067205e+00 5.978707e+00 6.023138e+00
6.067776e+00 5.978688e+00 6.022255e+00
6.068334e+00 5.978636e+00 6.021244e+00
6.068902e+00 5.978596e+00 6.020292e+00
6.069432e+00 5.978541e+00 6.019253e+00
6.069940e+00 5.978504e+00 6.018270e+00
6.070391e+00 5.978436e+00 6.017125e+00
6.070856e+00 5.978369e+00 6.015984e+00
6.071273e+00 5.978306e+00 6.014823e+00
6.071699e+00 5.978247e+00 6.013668e+00
5.937865e+00 6.042678e+00 6.018245e+00
6.067523e+00 6.010411e+00 5.997220e+00
6.065179e+00 6.010296e+00 6.017218e+00
6.067205e+00 6.003334e+00 6.018219e+00
5.977556e+00 6.035843e+00 6.019880e+00
5.976434e+00 6.035896e+00 6.021759e+00
6.062086e+00 6.014319e+00 5.987149e+00
5.974342e+00 6.035899e+00 6.024039e+00
5.973610e+00 6.035914e+00 6.024728e+00
5.963823e+00 6.052222e+00 5.976448e+00
6.067354e+00 6.007603e+00 6.013224e+00
6.066948e+00 6.007567e+00 6.015217e+00
6.051778e+00 6.016154e+00 6.027395e+00
6.010659e+00 6.073104e+00 5.976342e+00
5.973907e+00 6.052566e+00 6.012464e+00
6.010716e+00 6.078993e+00 5.972937e+00
6.013200e+00 6.079005e+00 5.971267e+00
6.005231e+00 6.076044e+00 5.977300e+00
5.974140e+00 6.044854e+00 6.015455e+00
6.067003e+00 6.001876e+00 5.985223e+00
6.054296e+00 6.009554e+00 6.029272e+00
5.990224e+00 6.059860e+00 5.994233e+00
5.991095e+00 6.059886e+00 5.993733e+00
5.991923e+00 6.059888e+00 5.993171e+00
5.977171e+00 6.051080e+00 6.001638e+00
5.976679e+00 6.051088e+00 6.002648e+00
6.059671e+00 6.001655e+00 6.030021e+00
6.001479e+00 6.073066e+00 5.980647e+00
5.977163e+00 6.023092e+00 6.022747e+00
5.972965e+00 6.020215e+00 6.025429e+00
5.960758e+00 6.038765e+00 6.034270e+00
5.933830e+00 6.027658e+00 6.026330e+00
5.996851e+00 5.995265e+00 5.964458e+00
5.933942e+00 6.024827e+00 6.001349e+00
5.966710e+00 6.048718e+00 6.027111e+00
6.052627e+00 6.016202e+00 6.026883e+00
5.971788e+00 6.037316e+00 6.025620e+00
5.969651e+00 6.045778e+00 6.022512e+00
6.053964e+00 6.001637e+00 6.034058e+00
6.007220e+00 6.080484e+00 5.974927e+00
5.998632e+00 6.068686e+00 5.985323e+00
6.016022e+00 6.081936e+00 5.966639e+00
6.001110e+00 6.083449e+00 5.981968e+00
5.932404e+00 6.030314e+00 6.009311e+00
6.005850e+00 6.062962e+00 5.985257e+00
5.961121e+00 6.050151e+00 6.031353e+00
6.063887e+00 5.997634e+00 6.027329e+00
5.962729e+00 6.037294e+00 6.031846e+00
5.968501e+00 6.034523e+00 6.029643e+00
6.070924e+00 5.997903e+00 5.991230e+00
5.937033e+00 6.039921e+00 6.017262e+00
5.970143e+00 6.040105e+00 6.024995e+00
5.965411e+00 6.035866e+00 6.030444e+00
6.047651e+00 6.025471e+00 6.023206e+00
5.998054e+00 6.073062e+00 5.982731e+00
6.054306e+00 6.000333e+00 6.034554e+00
5.959404e+00 6.017431e+00 6.035748e+00
5.966831e+00 6.050167e+00 6.027304e+00
5.964546e+00 6.035889e+00 6.030949e+00
5.982305e+00 6.026161e+00 5.978697e+00
5.982617e+00 6.064195e+00 5.997302e+00
6.072409e+00 5.990983e+00 5.996237e+00
5.969729e+00 6.055852e+00 6.022734e+00
6.066799e+00 5.991925e+00 5.979264e+00
5.963127e+00 6.059965e+00 5.952437e+00
5.963790e+00 6.035889e+00 6.031618e+00
6.036183e+00 5.980056e+00 6.046880e+00
6.037025e+00 5.980061e+00 6.046352e+00
6.037905e+00 5.980073e+00 6.045870e+00
6.038976e+00 5.980112e+00 6.045650e+00
6.040070e+00 5.980147e+00 6.045502e+00
6.041072e+00 5.980183e+00 6.045146e+00
6.041901e+00 5.980187e+00 6.044610e+00
6.042811e+00 5.980190e+00 6.044187e+00
6.043813e+00 5.980228e+00 6.043869e+00
6.044772e+00 5.980247e+00 6.043507e+00
6.045707e+00 5.980276e+00 6.043093e+00
6.046550e+00 5.980275e+00 6.042560e+00
6.047344e+00 5.980267e+00 6.041945e+00
6.048145e+00 5.980276e+00 6.041347e+00
6.048921e+00 5.980268e+00 6.040705e+00
6.049737e+00 5.980273e+00 6.040127e+00
6.050571e+00 5.980275e+00 6.039574e+00
6.051370e+00 5.980258e+00 6.038956e+00
6.052116e+00 5.980257e+00 6.038275e+00
6.052712e+00 5.980218e+00 6.037341e+00
6.053336e+00 5.980229e+00 6.036535e+00
6.054226e+00 5.980249e+00 6.036058e+00
6.055073e+00 5.980238e+00 6.035530e+00
6.055954e+00 5.980256e+00 6.035042e+00
6.056837e+00 5.980271e+00 6.034566e+00
6.057671e+00 5.980271e+00 6.034015e+00
6.058450e+00 5.980261e+00 6.033378e+00
6.059202e+00 5.980261e+00 6.032707e+00
6.059880e+00 5.980253e+00 6.031930e+00
6.060544e+00 5.980226e+00 6.031121e+00
6.061363e+00 5.980232e+00 6.030547e+00
6.062185e+00 5.980237e+00 6.029980e+00
6.062922e+00 5.980232e+00 6.029302e+00
6.063596e+00 5.980210e+00 6.028489e+00
6.064220e+00 5.980186e+00 6.027634e+00
6.064798e+00 5.980157e+00 6.026700e+00
6.065395e+00 5.980137e+00 6.025831e+00
6.065982e+00 5.980105e+00 6.024906e+00
6.066613e+00 5.980084e+00 6.024057e+00
6.067232e+00 5.980062e+00 6.023205e+00
6.067795e+00 5.980031e+00 6.022263e+00
6.068321e+00 5.979981e+00 6.021233e+00
6.068882e+00 5.979941e+00 6.020277e+00
6.069435e+00 5.979900e+00 6.019315e+00
6.069999e+00 5.979860e+00 6.018359e+00
6.070476e+00 5.979795e+00 6.017227e+00
6.070895e+00 5.979730e+00 6.016066e+00
6.071304e+00 5.979668e+00 6.014904e+00
6.071731e+00 5.979605e+00 6.013746e+00
6.072165e+00 5.979541e+00 6.012592e+00
6.072542e+00 5.979474e+00 6.011338e+00
5.974575e+00 6.044866e+00 6.013455e+00
6.069296e+00 6.002035e+00 5.990222e+00
6.070404e+00 6.002100e+00 5.994229e+00
6.024060e+00 6.013930e+00 5.969436e+00
5.955589e+00 6.081251e+00 5.936000e+00
5.939528e+00 6.007109e+00 6.013420e+00
5.959861e+00 6.037401e+00 6.036477e+00
6.025546e+00 6.007378e+00 6.035129e+00
5.996404e+00 6.073053e+00 5.983860e+00
6.045413e+00 6.008143e+00 6.035743e+00
6.053556e+00 6.016169e+00 6.026456e+00
6.054401e+00 6.016200e+00 6.025925e+00
6.002485e+00 6.078988e+00 5.978625e+00
6.006500e+00 6.079006e+00 5.975634e+00
5.988260e+00 6.055460e+00 5.993086e+00
5.990557e+00 6.065728e+00 5.991225e+00
5.985241e+00 6.059885e+00 5.997598e+00
5.986144e+00 6.059893e+00 5.997152e+00
5.988625e+00 6.059883e+00 5.995447e+00
5.989399e+00 6.059863e+00 5.994800e+00
5.979075e+00 6.051048e+00 5.999108e+00
5.978402e+00 6.051051e+00 5.999889e+00
5.977749e+00 6.051050e+00 6.000677e+00
5.969934e+00 6.044355e+00 6.022946e+00
5.970688e+00 6.044354e+00 6.022275e+00
5.973217e+00 6.044311e+00 6.018882e+00
5.973678e+00 6.044302e+00 6.017715e+00
6.062109e+00 6.000316e+00 6.028264e+00
5.961282e+00 6.038740e+00 6.033274e+00
5.960133e+00 6.035988e+00 6.036893e+00
5.949251e+00 6.000973e+00 5.979523e+00
5.959494e+00 6.035990e+00 6.037750e+00
5.955532e+00 6.064375e+00 5.948120e+00
6.067643e+00 6.007634e+00 6.011230e+00
5.976588e+00 6.037269e+00 6.020231e+00
5.976038e+00 6.037285e+00 6.021207e+00
5.968910e+00 6.045782e+00 6.023216e+00
5.993527e+00 6.065751e+00 5.990249e+00
5.954885e+00 6.041670e+00 6.039910e+00
6.009142e+00 6.068778e+00 5.981205e+00
6.016570e+00 6.081970e+00 5.965602e+00
6.048833e+00 6.018772e+00 6.026660e+00
6.063395e+00 6.003040e+00 5.980258e+00
6.005183e+00 6.062946e+00 5.986021e+00
5.961817e+00 6.050150e+00 6.030598e+00
5.991558e+00 6.058437e+00 5.992624e+00
5.963445e+00 6.037268e+00 6.031142e+00
5.967606e+00 6.034515e+00 6.030104e+00
6.068719e+00 6.000603e+00 6.017215e+00
6.070319e+00 6.000699e+00 6.012209e+00
5.969338e+00 6.040121e+00 6.025585e+00
5.979502e+00 6.025897e+00 6.019062e+00
6.048483e+00 6.025471e+00 6.022638e+00
6.057888e+00 6.008207e+00 6.027455e+00
5.960739e+00 6.035970e+00 6.036007e+00
6.072090e+00 5.992365e+00 6.008223e+00
5.953929e+00 6.041675e+00 6.040303e+00
6.046788e+00 6.006863e+00 6.035982e+00
5.976491e+00 6.021694e+00 6.023530e+00
5.955744e+00 6.041694e+00 6.039397e+00
6.069716e+00 6.004906e+00 6.005215e+00
6.000171e+00 6.065787e+00 5.989310e+00
5.964141e+00 6.071059e+00 5.947468e+00
5.956135e+00 6.034640e+00 6.041696e+00
5.964043e+00 6.052286e+00 5.978471e+00
5.965145e+00 6.063216e+00 5.965464e+00
6.037036e+00 5.981407e+00 6.046338e+00
6.037935e+00 5.981427e+00 6.045903e+00
6.039011e+00 5.981464e+00 6.045681e+00
6.040166e+00 5.981512e+00 6.045622e+00
6.041128e+00 5.981533e+00 6.045280e+00
6.042086e+00 5.981555e+00 6.044913e+00
6.043091e+00 5.981584e+00 6.044595e+00
6.044000e+00 5.981595e+00 6.044166e+00
6.044958e+00 5.981621e+00 6.043789e+00
6.045795e+00 5.981619e+00 6.043245e+00
6.046560e+00 5.981616e+00 6.042585e+00
6.047362e+00 5.981625e+00 6.041982e+00
6.048192e+00 5.981626e+00 6.041421e+00
6.049021e+00 5.981630e+00 6.040866e+00
6.049903e+00 5.981644e+00 6.040372e+00
6.050758e+00 5.981638e+00 6.039883e+00
6.051588e+00 5.981643e+00 6.039297e+00
6.052303e+00 5.981626e+00 6.038562e+00
6.052918e+00 5.981609e+00 6.037689e+00
6.053635e+00 5.981590e+00 6.036962e+00
6.054444e+00 5.981599e+00 6.036386e+00
6.055257e+00 5.981606e+00 6.035811e+00
6.056112e+00 5.981628e+00 6.035289e+00
6.056959e+00 5.981629e+00 6.034754e+00
6.057826e+00 5.981646e+00 6.034252e+00
6.058622e+00 5.981636e+00 6.033641e+00
6.059384e+00 5.981632e+00 6.032979e+00
6.060068e+00 5.981622e+00 6.032215e+00
6.060729e+00 5.981589e+00 6.031392e+00
6.061462e+00 5.981594e+00 6.030709e+00
6.062226e+00 5.981589e+00 6.030055e+00
6.062935e+00 5.981574e+00 6.029311e+00
6.063609e+00 5.981563e+00 6.028543e+00
6.064244e+00 5.981541e+00 6.027696e+00
6.064867e+00 5.981521e+00 6.026843e+00
6.065448e+00 5.981488e+00 6.025916e+00
6.066050e+00 5.981457e+00 6.025000e+00
6.066646e+00 5.981426e+00 6.024078e+00
6.067260e+00 5.981403e+00 6.023218e+00
6.067825e+00 5.981374e+00 6.022276e+00
6.068334e+00 5.981338e+00 6.021298e+00
6.068845e+00 5.981277e+00 6.020189e+00
6.069399e+00 5.981236e+00 6.019227e+00
6.069949e+00 5.981194e+00 6.018264e+00
6.070458e+00 5.981145e+00 6.017213e+00
6.070938e+00 5.981093e+00 6.016152e+00
6.071375e+00 5.981028e+00 6.014998e+00
6.071826e+00 5.980978e+00 6.013924e+00
6.072227e+00 5.980901e+00 6.012678e+00
6.072603e+00 5.980832e+00 6.011427e+00
6.072877e+00 5.980746e+00 6.010057e+00
6.069873e+00 6.002057e+00 5.992238e+00
6.070139e+00 6.002079e+00 5.993234e+00
6.069612e+00 6.002038e+00 5.991245e+00
6.068965e+00 6.001993e+00 5.989251e+00
5.963224e+00 6.024745e+00 6.037978e+00
5.980037e+00 6.032912e+00 6.016404e+00
6.016803e+00 6.074518e+00 5.971248e+00
6.013202e+00 6.071713e+00 5.976535e+00
6.046305e+00 6.008162e+00 6.035285e+00
6.064061e+00 6.008146e+00 6.020504e+00
6.055241e+00 6.016219e+00 6.025385e+00
6.000255e+00 6.078982e+00 5.980671e+00
5.990868e+00 6.071565e+00 5.989886e+00
5.989080e+00 6.071594e+00 5.992621e+00
5.978883e+00 6.059824e+00 6.000681e+00
5.979713e+00 6.059829e+00 6.000122e+00
5.981574e+00 6.051050e+00 5.995687e+00
5.980937e+00 6.051065e+00 5.996549e+00
6.068048e+00 5.996250e+00 5.982276e+00
5.979699e+00 6.051026e+00 5.998239e+00
5.967416e+00 6.044336e+00 6.024569e+00
5.968311e+00 6.044360e+00 6.024107e+00
5.969125e+00 6.044360e+00 6.023527e+00
5.965483e+00 6.038662e+00 6.028793e+00
5.963788e+00 6.038681e+00 6.029862e+00
5.963024e+00 6.038709e+00 6.030475e+00
5.962369e+00 6.038702e+00 6.031319e+00
5.961809e+00 6.038734e+00 6.032227e+00
6.063228e+00 6.015851e+00 5.993221e+00
6.010741e+00 6.009302e+00 5.968304e+00
5.964333e+00 6.067840e+00 5.937468e+00
6.072042e+00 5.997987e+00 5.997224e+00
6.066097e+00 6.003230e+00 5.984232e+00
6.067840e+00 6.007624e+00 6.010221e+00
5.937372e+00 6.000424e+00 6.007471e+00
5.968157e+00 6.045784e+00 6.023885e+00
5.972439e+00 6.045763e+00 6.019469e+00
6.017196e+00 6.077429e+00 5.968268e+00
6.010194e+00 6.068708e+00 5.980966e+00
6.005603e+00 6.081962e+00 5.976127e+00
6.068292e+00 5.997394e+00 6.019531e+00
5.986613e+00 6.068632e+00 5.994315e+00
5.984858e+00 6.062783e+00 5.995294e+00
5.967392e+00 6.050149e+00 6.026332e+00
5.963272e+00 6.026143e+00 6.037994e+00
5.966859e+00 6.037317e+00 6.029034e+00
5.961704e+00 6.034545e+00 6.035657e+00
6.055143e+00 6.009534e+00 6.028738e+00
5.948387e+00 6.065823e+00 5.966089e+00
6.035826e+00 6.027938e+00 6.025428e+00
5.973939e+00 6.026026e+00 6.026933e+00
5.978772e+00 6.025835e+00 6.019809e+00
6.049253e+00 6.025481e+00 6.021981e+00
6.049846e+00 6.024123e+00 6.022851e+00
5.980475e+00 6.053986e+00 5.999398e+00
6.072058e+00 5.992361e+00 6.009220e+00
6.006492e+00 6.064427e+00 5.986169e+00
6.054829e+00 6.017551e+00 6.024793e+00
6.062586e+00 5.997674e+00 6.028942e+00
5.958834e+00 6.036042e+00 6.038499e+00
5.977312e+00 6.027370e+00 6.022989e+00
6.071720e+00 5.993733e+00 5.991225e+00
5.971219e+00 6.033128e+00 6.028292e+00
5.956036e+00 6.040275e+00 6.039808e+00
5.972482e+00 6.037317e+00 6.024858e+00
6.071022e+00 5.999316e+00 5.993236e+00
6.036963e+00 5.982742e+00 6.046242e+00
6.037863e+00 5.982761e+00 6.045812e+00
6.038934e+00 5.982795e+00 6.045571e+00
6.040144e+00 5.982850e+00 6.045575e+00
6.041162e+00 5.982881e+00 6.045305e+00
6.042184e+00 5.982914e+00 6.045041e+00
6.043095e+00 5.982929e+00 6.044633e+00
6.044099e+00 5.982960e+00 6.044310e+00
6.044952e+00 5.982964e+00 6.043800e+00
6.045811e+00 5.982976e+00 6.043266e+00
6.046551e+00 5.982964e+00 6.042583e+00
6.047410e+00 5.982976e+00 6.042062e+00
6.048254e+00 5.982977e+00 6.041529e+00
6.049125e+00 5.982990e+00 6.041031e+00
6.049969e+00 5.982991e+00 6.040498e+00
6.050863e+00 5.983004e+00 6.040031e+00
6.051681e+00 5.983010e+00 6.039448e+00
6.052416e+00 5.983009e+00 6.038756e+00
6.053075e+00 5.982985e+00 6.037937e+00
6.053791e+00 5.982969e+00 6.037207e+00
6.054597e+00 5.982976e+00 6.036622e+00
6.055371e+00 5.982970e+00 6.035983e+00
6.056197e+00 5.982976e+00 6.035424e+00
6.057050e+00 5.982991e+00 6.034898e+00
6.057896e+00 5.982994e+00 6.034363e+00
6.058705e+00 5.982998e+00 6.033779e+00
6.059459e+00 5.982980e+00 6.033091e+00
6.060189e+00 5.982979e+00 6.032394e+00
6.060880e+00 5.982967e+00 6.031637e+00
6.061567e+00 5.982955e+00 6.030878e+00
6.062273e+00 5.982941e+00 6.030132e+00
6.062919e+00 5.982920e+00 6.029298e+00
6.063573e+00 5.982904e+00 6.028513e+00
6.064215e+00 5.982884e+00 6.027672e+00
6.064860e+00 5.982863e+00 6.026838e+00
6.065517e+00 5.982839e+00 6.026011e+00
6.066141e+00 5.982818e+00 6.025159e+00
6.066697e+00 5.982777e+00 6.024159e+00
6.067290e+00 5.982757e+00 6.023289e+00
6.067857e+00 5.982727e+00 6.022349e+00
6.068345e+00 5.982684e+00 6.021301e+00
6.068845e+00 5.982632e+00 6.020250e+00
6.069343e+00 5.982594e+00 6.019259e+00
6.069963e+00 5.982554e+00 6.018332e+00
6.070449e+00 5.982502e+00 6.017274e+00
6.070955e+00 5.982452e+00 6.016223e+00
6.071459e+00 5.982402e+00 6.015169e+00
6.071903e+00 5.982339e+00 6.014020e+00
6.072304e+00 5.982271e+00 6.012774e+00
6.072641e+00 5.982196e+00 6.011508e+00
6.072907e+00 5.982116e+00 6.010143e+00
6.064117e+00 5.988909e+00 5.975279e+00
6.072392e+00 5.992383e+00 6.004216e+00
6.073193e+00 5.981777e+00 6.005182e+00
5.942904e+00 6.013659e+00 5.993389e+00
5.997258e+00 6.064365e+00 5.992141e+00
6.067522e+00 6.010406e+00 6.002215e+00
6.012871e+00 6.087895e+00 5.967289e+00
6.065201e+00 6.005449e+00 6.020429e+00
6.065781e+00 6.005412e+00 6.019547e+00
6.063406e+00 6.008149e+00 6.021342e+00
6.056039e+00 6.016198e+00 6.024785e+00
5.998366e+00 6.079008e+00 5.983259e+00
5.991991e+00 6.071564e+00 5.988009e+00
6.055932e+00 6.009552e+00 6.028128e+00
6.068080e+00 6.009051e+00 6.003217e+00
6.056755e+00 6.016210e+00 6.024052e+00
5.981992e+00 6.051178e+00 5.994639e+00
5.964402e+00 6.044346e+00 6.027237e+00
5.965115e+00 6.044337e+00 6.026496e+00
5.965777e+00 6.044334e+00 6.025706e+00
5.966484e+00 6.044332e+00 6.024985e+00
5.968200e+00 6.038721e+00 6.027454e+00
5.967306e+00 6.038716e+00 6.027922e+00
5.966389e+00 6.038678e+00 6.028342e+00
5.964441e+00 6.060090e+00 5.975467e+00
5.933394e+00 6.031721e+00 6.017322e+00
5.998921e+00 6.073050e+00 5.982223e+00
6.072541e+00 5.993804e+00 5.998229e+00
5.941683e+00 6.012351e+00 5.995434e+00
5.975066e+00 6.052588e+00 6.007470e+00
6.070883e+00 6.000714e+00 5.994236e+00
6.031336e+00 6.012948e+00 6.032941e+00
6.066722e+00 6.003268e+00 5.985240e+00
5.951728e+00 6.049205e+00 5.984171e+00
6.068859e+00 5.997792e+00 6.018223e+00
5.962736e+00 6.045844e+00 6.030145e+00
6.001729e+00 6.077502e+00 5.979279e+00
5.993207e+00 6.061393e+00 5.993286e+00
6.014711e+00 6.081959e+00 5.968204e+00
5.998932e+00 6.081965e+00 5.984090e+00
6.047195e+00 6.008168e+00 6.034815e+00
5.987267e+00 6.068632e+00 5.993508e+00
5.983972e+00 6.062769e+00 5.995761e+00
5.967799e+00 6.050122e+00 6.025136e+00
6.066640e+00 5.997491e+00 6.022482e+00
5.967755e+00 6.037326e+00 6.028570e+00
5.961118e+00 6.034577e+00 6.036549e+00
6.071945e+00 5.990957e+00 6.012217e+00
5.945032e+00 6.001239e+00 5.984489e+00
6.036844e+00 6.027923e+00 6.025122e+00
5.973192e+00 6.026028e+00 6.027605e+00
6.070486e+00 5.995076e+00 6.015220e+00
6.069643e+00 5.995019e+00 6.017239e+00
6.070110e+00 5.995049e+00 6.016220e+00
6.056765e+00 6.009562e+00 6.027577e+00
5.954086e+00 6.036009e+00 6.042249e+00
5.962624e+00 6.021897e+00 6.037091e+00
6.064632e+00 6.014513e+00 5.995219e+00
5.964893e+00 6.017161e+00 6.027783e+00
6.002581e+00 6.064469e+00 5.989315e+00
5.988182e+00 6.064284e+00 5.993083e+00
5.976731e+00 6.027388e+00 6.023893e+00
5.964347e+00 6.020134e+00 6.030546e+00
5.964225e+00 6.027487e+00 6.035815e+00
5.957860e+00 6.020489e+00 6.042337e+00
5.975118e+00 6.031685e+00 6.025141e+00
5.964901e+00 6.066360e+00 5.956462e+00
6.036826e+00 5.984071e+00 6.046064e+00
6.037785e+00 5.984094e+00 6.045704e+00
6.038793e+00 5.984119e+00 6.045388e+00
6.039939e+00 5.984164e+00 6.045286e+00
6.041022e+00 5.984207e+00 6.045113e+00
6.042047e+00 5.984244e+00 6.044865e+00
6.043013e+00 5.984272e+00 6.044518e+00
6.044016e+00 5.984291e+00 6.044193e+00
6.044932e+00 5.984309e+00 6.043767e+00
6.045808e+00 5.984322e+00 6.043275e+00
6.046608e+00 5.984318e+00 6.042665e+00
6.047433e+00 5.984324e+00 6.042101e+00
6.048275e+00 5.984329e+00 6.041566e+00
6.049125e+00 5.984333e+00 6.041047e+00
6.050030e+00 5.984344e+00 6.040600e+00
6.050928e+00 5.984356e+00 6.040134e+00
6.051743e+00 5.984363e+00 6.039547e+00
6.052472e+00 5.984359e+00 6.038845e+00
6.053114e+00 5.984327e+00 6.037981e+00
6.053820e+00 5.984323e+00 6.037267e+00
6.054587e+00 5.984322e+00 6.036618e+00
6.055376e+00 5.984317e+00 6.035995e+00
6.056218e+00 5.984328e+00 6.035464e+00
6.057040e+00 5.984332e+00 6.034892e+00
6.057888e+00 5.984336e+00 6.034362e+00
6.058714e+00 5.984340e+00 6.033799e+00
6.059490e+00 5.984335e+00 6.033155e+00
6.060261e+00 5.984331e+00 6.032504e+00
6.060970e+00 5.984328e+00 6.031791e+00
6.061625e+00 5.984307e+00 6.030969e+00
6.062273e+00 5.984284e+00 6.030133e+00
6.062879e+00 5.984261e+00 6.029265e+00
6.063486e+00 5.984233e+00 6.028358e+00
6.064191e+00 5.984226e+00 6.027654e+00
6.064896e+00 5.984215e+00 6.026908e+00
6.065573e+00 5.984201e+00 6.026142e+00
6.066169e+00 5.984172e+00 6.025225e+00
6.066747e+00 5.984143e+00 6.024294e+00
6.067336e+00 5.984110e+00 6.023371e+00
6.067889e+00 5.984081e+00 6.022422e+00
6.068394e+00 5.984039e+00 6.021387e+00
6.068877e+00 5.983991e+00 6.020328e+00
6.069353e+00 5.983940e+00 6.019261e+00
6.069941e+00 5.983900e+00 6.018317e+00
6.070492e+00 5.983863e+00 6.017355e+00
6.070960e+00 5.983802e+00 6.016220e+00
6.071470e+00 5.983752e+00 6.015169e+00
6.071920e+00 5.983704e+00 6.014093e+00
6.072316e+00 5.983633e+00 6.012848e+00
6.072648e+00 5.983565e+00 6.011582e+00
6.072879e+00 5.983472e+00 6.010130e+00
6.072948e+00 5.983352e+00 6.008379e+00
6.073006e+00 5.983233e+00 6.006630e+00
5.977320e+00 6.024528e+00 6.022989e+00
6.041220e+00 6.026728e+00 6.024447e+00
5.966530e+00 6.024580e+00 6.032012e+00
5.991752e+00 6.067157e+00 5.989420e+00
5.970249e+00 6.026049e+00 6.030377e+00
5.938343e+00 6.039764e+00 5.995295e+00
6.061531e+00 6.005547e+00 6.025727e+00
6.064723e+00 6.008121e+00 6.019725e+00
6.057478e+00 6.016181e+00 6.023357e+00
5.995904e+00 6.079000e+00 5.986713e+00
5.993326e+00 6.071566e+00 5.986437e+00
6.020478e+00 6.007155e+00 6.034820e+00
6.003339e+00 6.077509e+00 5.978087e+00
6.002517e+00 6.077506e+00 5.978655e+00
5.962709e+00 6.044402e+00 6.030072e+00
5.963235e+00 6.044383e+00 6.029083e+00
5.971317e+00 6.038744e+00 6.024921e+00
5.970602e+00 6.038724e+00 6.025657e+00
5.969846e+00 6.038726e+00 6.026326e+00
5.969079e+00 6.038712e+00 6.026972e+00
6.058135e+00 6.016187e+00 6.022526e+00
5.984230e+00 6.058405e+00 5.997873e+00
5.941443e+00 6.015166e+00 6.014409e+00
6.062166e+00 6.002923e+00 6.026620e+00
5.994849e+00 6.073044e+00 5.985139e+00
5.937643e+00 6.003130e+00 6.010457e+00
6.053161e+00 6.021477e+00 6.022370e+00
6.051459e+00 6.021484e+00 6.023427e+00
5.969577e+00 6.027468e+00 6.031171e+00
6.071051e+00 6.000737e+00 5.995226e+00
5.943807e+00 6.017553e+00 5.991272e+00
6.065473e+00 6.003190e+00 5.983225e+00
5.946414e+00 6.052082e+00 5.990226e+00
6.066073e+00 6.000380e+00 5.983250e+00
5.962162e+00 6.045857e+00 6.031051e+00
6.067458e+00 6.009018e+00 6.009220e+00
5.992338e+00 6.061379e+00 5.993812e+00
6.006416e+00 6.084930e+00 5.975559e+00
5.999595e+00 6.081973e+00 5.983300e+00
6.006361e+00 6.081963e+00 5.975460e+00
5.995789e+00 6.068642e+00 5.986472e+00
5.971939e+00 6.048653e+00 6.020592e+00
5.968313e+00 6.050107e+00 6.024147e+00
5.980308e+00 6.051075e+00 5.997485e+00
5.968642e+00 6.037322e+00 6.028093e+00
5.972951e+00 6.024572e+00 6.027227e+00
5.968881e+00 6.023168e+00 6.030114e+00
6.050284e+00 6.020144e+00 6.025252e+00
6.037745e+00 6.027953e+00 6.024681e+00
5.966800e+00 6.026021e+00 6.032415e+00
6.072276e+00 5.995192e+00 6.003213e+00
5.979749e+00 6.053979e+00 6.000100e+00
5.947826e+00 5.974811e+00 6.001473e+00
5.958139e+00 6.033237e+00 6.041063e+00
6.065526e+00 5.991824e+00 5.977267e+00
6.046951e+00 6.022766e+00 6.025701e+00
5.963063e+00 6.021876e+00 6.035970e+00
5.963451e+00 6.021801e+00 6.034698e+00
5.964948e+00 6.020128e+00 6.029656e+00
6.067729e+00 5.997419e+00 6.020549e+00
6.060268e+00 5.999023e+00 6.030878e+00
5.958315e+00 6.021985e+00 6.043001e+00
5.957369e+00 6.021948e+00 6.043390e+00
5.973905e+00 6.021656e+00 6.025042e+00
6.052156e+00 6.002956e+00 6.034970e+00
5.965957e+00 6.037299e+00 6.029481e+00
6.036690e+00 5.985399e+00 6.045888e+00
6.037638e+00 5.985427e+00 6.045514e+00
6.038604e+00 5.985447e+00 6.045152e+00
6.039672e+00 5.985479e+00 6.044926e+00
6.040759e+00 5.985521e+00 6.044757e+00
6.041783e+00 5.985561e+00 6.044504e+00
6.042796e+00 5.985583e+00 6.044195e+00
6.043806e+00 5.985604e+00 6.043887e+00
6.044774e+00 5.985637e+00 6.043552e+00
6.045667e+00 5.985650e+00 6.043086e+00
6.046487e+00 5.985651e+00 6.042509e+00
6.047352e+00 5.985505e+00 6.042000e+00
6.048233e+00 5.985668e+00 6.041520e+00
6.049168e+00 5.985688e+00 6.041117e+00
6.050077e+00 5.985703e+00 6.040687e+00
6.050930e+00 5.985707e+00 6.040150e+00
6.051715e+00 5.985706e+00 6.039516e+00
6.052434e+00 5.985696e+00 6.038789e+00
6.053122e+00 5.985682e+00 6.038020e+00
6.053808e+00 5.985666e+00 6.037258e+00
6.054530e+00 5.985657e+00 6.036531e+00
6.055284e+00 5.985653e+00 6.035868e+00
6.056117e+00 5.985660e+00 6.035319e+00
6.056962e+00 5.985664e+00 6.034790e+00
6.057846e+00 5.985677e+00 6.034310e+00
6.058675e+00 5.985681e+00 6.033751e+00
6.059492e+00 5.985684e+00 6.033179e+00
6.060245e+00 5.985675e+00 6.032489e+00
6.060961e+00 5.985670e+00 6.031784e+00
6.061618e+00 5.985649e+00 6.030961e+00
6.062222e+00 5.985625e+00 6.030090e+00
6.062790e+00 5.985591e+00 6.029107e+00
6.063452e+00 5.985575e+00 6.028329e+00
6.064175e+00 5.985568e+00 6.027636e+00
6.064886e+00 5.985556e+00 6.026900e+00
6.065568e+00 5.985544e+00 6.026134e+00
6.066192e+00 5.985524e+00 6.025288e+00
6.066721e+00 5.985407e+00 6.024467e+00
6.067389e+00 5.985464e+00 6.023452e+00
6.067930e+00 5.985434e+00 6.022502e+00
6.068409e+00 5.985395e+00 6.021454e+00
6.068912e+00 5.985334e+00 6.020339e+00
6.069442e+00 5.985298e+00 6.019366e+00
6.069999e+00 5.985258e+00 6.018407e+00
6.070537e+00 5.985233e+00 6.017287e+00
6.070981e+00 5.985221e+00 6.016260e+00
6.071442e+00 5.985211e+00 6.015182e+00
6.071904e+00 5.985052e+00 6.014081e+00
6.072275e+00 5.984982e+00 6.012743e+00
6.072588e+00 5.984906e+00 6.011475e+00
6.072778e+00 5.984812e+00 6.010016e+00
6.032888e+00 6.012088e+00 5.970747e+00
5.995324e+00 6.076038e+00 5.985867e+00
6.062725e+00 6.002895e+00 6.025677e+00
6.063293e+00 6.002868e+00 6.024738e+00
6.063966e+00 6.002871e+00 6.023918e+00
6.064635e+00 6.002849e+00 6.023144e+00
6.000541e+00 6.067240e+00 5.986328e+00
6.058281e+00 6.004275e+00 6.029784e+00
6.060838e+00 6.005556e+00 6.026471e+00
6.065304e+00 6.008106e+00 6.018781e+00
6.058777e+00 6.016182e+00 6.021679e+00
5.996553e+00 6.079005e+00 5.985908e+00
5.996646e+00 6.071593e+00 5.984208e+00
6.003569e+00 6.083441e+00 5.978468e+00
6.016831e+00 6.071727e+00 5.972998e+00
5.960470e+00 6.044482e+00 6.033845e+00
5.959852e+00 6.044489e+00 6.034773e+00
5.972850e+00 6.038704e+00 6.023640e+00
5.972103e+00 6.038713e+00 6.024315e+00
5.964458e+00 6.067903e+00 5.948460e+00
6.059406e+00 6.016168e+00 6.020821e+00
6.060047e+00 6.016165e+00 6.019976e+00
6.060654e+00 6.016136e+00 6.019099e+00
6.048081e+00 6.008171e+00 6.034342e+00
5.971372e+00 6.048668e+00 6.021553e+00
6.059092e+00 6.014831e+00 6.022156e+00
5.999571e+00 6.067225e+00 5.986680e+00
5.960005e+00 6.020508e+00 6.040194e+00
5.964338e+00 6.018611e+00 6.028746e+00
5.959906e+00 6.019009e+00 6.038281e+00
6.052281e+00 6.021485e+00 6.022852e+00
5.961195e+00 6.020487e+00 6.038430e+00
5.990794e+00 6.067159e+00 5.989794e+00
5.964367e+00 6.060032e+00 5.957452e+00
6.071660e+00 5.990919e+00 5.991239e+00
6.068070e+00 6.000504e+00 5.986265e+00
5.960967e+00 6.045894e+00 6.032830e+00
6.067581e+00 6.009024e+00 6.008219e+00
5.989778e+00 6.061375e+00 5.995380e+00
6.008965e+00 6.065913e+00 5.984479e+00
5.933484e+00 6.027535e+00 6.002335e+00
6.007154e+00 6.081960e+00 5.974856e+00
6.007207e+00 6.068760e+00 5.981917e+00
6.047300e+00 6.021430e+00 6.026203e+00
6.068748e+00 6.007635e+00 6.003209e+00
5.973057e+00 6.045738e+00 6.018658e+00
5.975396e+00 6.037279e+00 6.022059e+00
5.969757e+00 6.033126e+00 6.029703e+00
6.068209e+00 6.007644e+00 6.007217e+00
5.992052e+00 6.074552e+00 5.989899e+00
6.070208e+00 5.996418e+00 5.988265e+00
5.965981e+00 6.026011e+00 6.033000e+00
5.946140e+00 6.019716e+00 6.038515e+00
5.978495e+00 6.041156e+00 6.007050e+00
5.976268e+00 6.054030e+00 6.003890e+00
5.978720e+00 6.041097e+00 6.005647e+00
5.957380e+00 6.033236e+00 6.041730e+00
5.975762e+00 6.052597e+00 6.004892e+00
5.985834e+00 6.058378e+00 5.996671e+00
6.053011e+00 6.008173e+00 6.030924e+00
5.963909e+00 6.021775e+00 6.033598e+00
5.964359e+00 6.021712e+00 6.032421e+00
6.016852e+00 6.072912e+00 5.972293e+00
5.969358e+00 6.021726e+00 6.029020e+00
5.970194e+00 6.021714e+00 6.028481e+00
5.962105e+00 6.020490e+00 6.036329e+00
6.033746e+00 5.986672e+00 6.046893e+00
6.034754e+00 5.986704e+00 6.046583e+00
6.035704e+00 5.986724e+00 6.046197e+00
6.036670e+00 5.986742e+00 6.045857e+00
6.037571e+00 5.986757e+00 6.045418e+00
6.038460e+00 5.986769e+00 6.044943e+00
6.039407e+00 5.986788e+00 6.044556e+00
6.040431e+00 5.986823e+00 6.044289e+00
6.041451e+00 5.986864e+00 6.044023e+00
6.042467e+00 5.986887e+00 6.043731e+00
6.043487e+00 5.986921e+00 6.043454e+00
6.044498e+00 5.986941e+00 6.043151e+00
6.045392e+00 5.986959e+00 6.042695e+00
6.046282e+00 5.986968e+00 6.042221e+00
6.047239e+00 5.986992e+00 6.041857e+00
6.048210e+00 5.987019e+00 6.041511e+00
6.049136e+00 5.987026e+00 6.041072e+00
6.049984e+00 5.987038e+00 6.040552e+00
6.050820e+00 5.987042e+00 6.039994e+00
6.051604e+00 5.987036e+00 6.039367e+00
6.052313e+00 5.987026e+00 6.038633e+00
6.053068e+00 5.987021e+00 6.037967e+00
6.053813e+00 5.987010e+00 6.037262e+00
6.054539e+00 5.987005e+00 6.036569e+00
6.055184e+00 5.986984e+00 6.035736e+00
6.055959e+00 5.986982e+00 6.035096e+00
6.056827e+00 5.986991e+00 6.034601e+00
6.057711e+00 5.987003e+00 6.034126e+00
6.058598e+00 5.987015e+00 6.033646e+00
6.059400e+00 5.987016e+00 6.033042e+00
6.060166e+00 5.987011e+00 6.032383e+00
6.060890e+00 5.987003e+00 6.031686e+00
6.061545e+00 5.986983e+00 6.030859e+00
6.062129e+00 5.986953e+00 6.029932e+00
6.062740e+00 5.986932e+00 6.029068e+00
6.063421e+00 5.986917e+00 6.028305e+00
6.064146e+00 5.986912e+00 6.027612e+00
6.064827e+00 5.986891e+00 6.026809e+00
6.065541e+00 5.986884e+00 6.026113e+00
6.066222e+00 5.986875e+00 6.025353e+00
6.066843e+00 5.986845e+00 6.024457e+00
6.067415e+00 5.986816e+00 6.023520e+00
6.067926e+00 5.986777e+00 6.022495e+00
6.068433e+00 5.986739e+00 6.021462e+00
6.068961e+00 5.986703e+00 6.020488e+00
6.069527e+00 5.986653e+00 6.019470e+00
6.070073e+00 5.986616e+00 6.018505e+00
6.070610e+00 5.986618e+00 6.017321e+00
6.050469e+00 5.999011e+00 6.037801e+00
6.068125e+00 5.998724e+00 6.019378e+00
5.951510e+00 6.082623e+00 5.938107e+00
6.042119e+00 6.000127e+00 6.039756e+00
5.974726e+00 6.021655e+00 6.024467e+00
5.936670e+00 6.024740e+00 5.995355e+00
6.057104e+00 6.014884e+00 6.024555e+00
5.986863e+00 6.065678e+00 5.992887e+00
5.961320e+00 6.018958e+00 6.035109e+00
5.995056e+00 6.077502e+00 5.987211e+00
6.060413e+00 6.014810e+00 6.020542e+00
5.980061e+00 6.027268e+00 6.018126e+00
6.050574e+00 6.024156e+00 6.022127e+00
6.058942e+00 6.004277e+00 6.028970e+00
6.060117e+00 6.005580e+00 6.027160e+00
6.068781e+00 5.997350e+00 6.018540e+00
6.061269e+00 6.016113e+00 6.018234e+00
6.049742e+00 6.018803e+00 6.026228e+00
5.999235e+00 6.071584e+00 5.982670e+00
5.982272e+00 6.055448e+00 5.998497e+00
5.958637e+00 6.020549e+00 6.041706e+00
5.959189e+00 6.044506e+00 6.035569e+00
5.973555e+00 6.038715e+00 6.022888e+00
6.063663e+00 6.000195e+00 5.980171e+00
6.069338e+00 5.997771e+00 5.987256e+00
6.072675e+00 5.991001e+00 5.998231e+00
6.062371e+00 5.998993e+00 6.028643e+00
6.061709e+00 5.999000e+00 6.029459e+00
5.981651e+00 6.058390e+00 5.999398e+00
6.048160e+00 6.021471e+00 6.025702e+00
5.943469e+00 5.998611e+00 5.985488e+00
6.002961e+00 6.083441e+00 5.979350e+00
5.984994e+00 6.067149e+00 5.995481e+00
5.965988e+00 6.018620e+00 6.027623e+00
5.965084e+00 6.018615e+00 6.028065e+00
5.959331e+00 6.018996e+00 6.039177e+00
6.048495e+00 6.004281e+00 6.036708e+00
5.994128e+00 6.073020e+00 5.985832e+00
6.049909e+00 6.021446e+00 6.024701e+00
5.964341e+00 6.067891e+00 5.946457e+00
5.936606e+00 6.053582e+00 6.003221e+00
5.968552e+00 6.053002e+00 6.024525e+00
5.960397e+00 6.045909e+00 6.033792e+00
5.960815e+00 6.051568e+00 6.030920e+00
5.990662e+00 6.061380e+00 5.994886e+00
5.989370e+00 6.070088e+00 5.991238e+00
5.963832e+00 6.066219e+00 5.937462e+00
6.007905e+00 6.081970e+00 5.974165e+00
6.008176e+00 6.068774e+00 5.981568e+00
6.057573e+00 6.009555e+00 6.026993e+00
6.003449e+00 6.064474e+00 5.988813e+00
6.052547e+00 6.018838e+00 6.025009e+00
6.050743e+00 6.018790e+00 6.025904e+00
5.963692e+00 6.042920e+00 6.027937e+00
6.068660e+00 6.007648e+00 6.004212e+00
5.995651e+00 6.074529e+00 5.984529e+00
6.071299e+00 5.996519e+00 5.991233e+00
5.965256e+00 6.026027e+00 6.033745e+00
6.072407e+00 5.993790e+00 5.996231e+00
6.051843e+00 6.013504e+00 6.029217e+00
5.968343e+00 6.031713e+00 6.031165e+00
5.969231e+00 6.031719e+00 6.030693e+00
5.970065e+00 6.031729e+00 6.030148e+00
5.970815e+00 6.031722e+00 6.029470e+00
5.998927e+00 6.084773e+00 5.976042e+00
6.049381e+00 6.006878e+00 6.034464e+00
6.012700e+00 6.077542e+00 5.972287e+00
5.963602e+00 6.024712e+00 6.036781e+00
6.007005e+00 6.063136e+00 5.983503e+00
6.011871e+00 6.074591e+00 5.974589e+00
6.052750e+00 6.013542e+00 6.028801e+00
6.032961e+00 5.988024e+00 6.047514e+00
6.033920e+00 5.988043e+00 6.047159e+00
6.034933e+00 5.988073e+00 6.046865e+00
6.035882e+00 5.988095e+00 6.046481e+00
6.036777e+00 5.988104e+00 6.046023e+00
6.037673e+00 5.988117e+00 6.045566e+00
6.038492e+00 5.988114e+00 6.044996e+00
6.039279e+00 5.988118e+00 6.044382e+00
6.040195e+00 5.988141e+00 6.043950e+00
6.041171e+00 5.988157e+00 6.043598e+00
6.042185e+00 5.988185e+00 6.043314e+00
6.043160e+00 5.988226e+00 6.042987e+00
6.044165e+00 5.988245e+00 6.042675e+00
6.053744e+00 6.013533e+00 6.028467e+00
6.046076e+00 5.988287e+00 6.041933e+00
6.047091e+00 5.988314e+00 6.041641e+00
6.048062e+00 5.988348e+00 6.041308e+00
6.049006e+00 5.988360e+00 6.040904e+00
6.049889e+00 5.988366e+00 6.040414e+00
6.050674e+00 5.988369e+00 6.039797e+00
6.051454e+00 5.988367e+00 6.039161e+00
6.052193e+00 5.988354e+00 6.038463e+00
6.053047e+00 5.988358e+00 6.037930e+00
6.053865e+00 5.988362e+00 6.037349e+00
6.054556e+00 5.988351e+00 6.036589e+00
6.055178e+00 5.988328e+00 6.035732e+00
6.055756e+00 5.988298e+00 6.034828e+00
6.056617e+00 5.988296e+00 6.034282e+00
6.057587e+00 5.988325e+00 6.033928e+00
6.058519e+00 5.988353e+00 6.033542e+00
6.059363e+00 5.988355e+00 6.033006e+00
6.060126e+00 5.988351e+00 6.032345e+00
6.060811e+00 5.988338e+00 6.031579e+00
6.061504e+00 5.988324e+00 6.030825e+00
6.062105e+00 5.988297e+00 6.029913e+00
6.062750e+00 5.988282e+00 6.029119e+00
6.063398e+00 5.988254e+00 6.028244e+00
6.064107e+00 5.988248e+00 6.027542e+00
6.064816e+00 5.988236e+00 6.026801e+00
6.065525e+00 5.988228e+00 6.026100e+00
6.066194e+00 5.988208e+00 6.025285e+00
6.066804e+00 5.988187e+00 6.024426e+00
6.067391e+00 5.988159e+00 6.023502e+00
6.067927e+00 5.988122e+00 6.022491e+00
6.068417e+00 5.988082e+00 6.021450e+00
6.068940e+00 5.988036e+00 6.020408e+00
6.069510e+00 5.988009e+00 6.019520e+00
6.070075e+00 5.987974e+00 6.018566e+00
6.070592e+00 5.987991e+00 6.017371e+00
6.049518e+00 5.998997e+00 6.038197e+00
6.068651e+00 5.998692e+00 6.018339e+00
6.072775e+00 5.991008e+00 5.999228e+00
6.042998e+00 6.000121e+00 6.039262e+00
6.064435e+00 6.009446e+00 6.019315e+00
5.973424e+00 6.042907e+00 6.019131e+00
6.057775e+00 6.014859e+00 6.023777e+00
6.049995e+00 6.001661e+00 6.037123e+00
6.050882e+00 6.001669e+00 6.036640e+00
6.051703e+00 6.001670e+00 6.036068e+00
6.064932e+00 6.001513e+00 6.023612e+00
6.058146e+00 5.997711e+00 6.033064e+00
5.973930e+00 6.042869e+00 6.018128e+00
6.059713e+00 6.004243e+00 6.028353e+00
6.059361e+00 6.005585e+00 6.027821e+00
5.947919e+00 6.019224e+00 6.039247e+00
6.066443e+00 6.007503e+00 5.988296e+00
6.051362e+00 5.999024e+00 6.037329e+00
6.005580e+00 6.074552e+00 5.977789e+00
6.001026e+00 6.071587e+00 5.981743e+00
5.932864e+00 6.028971e+00 6.016329e+00
6.058373e+00 6.009543e+00 6.026404e+00
5.958459e+00 6.044521e+00 6.036269e+00
5.974243e+00 6.038709e+00 6.022120e+00
5.964155e+00 6.063209e+00 5.972468e+00
6.001001e+00 6.076015e+00 5.979976e+00
5.970520e+00 6.033130e+00 6.029047e+00
5.980507e+00 6.028691e+00 6.016959e+00
5.981125e+00 6.028658e+00 6.016137e+00
6.071523e+00 5.997942e+00 5.994235e+00
6.054580e+00 6.013553e+00 6.027940e+00
6.055354e+00 6.013567e+00 6.027311e+00
6.059134e+00 6.009540e+00 6.025750e+00
6.005729e+00 6.084930e+00 5.976329e+00
5.961651e+00 6.026213e+00 6.040865e+00
5.956013e+00 6.031809e+00 6.043251e+00
6.056095e+00 6.013553e+00 6.026631e+00
5.959840e+00 6.015606e+00 6.029227e+00
6.004620e+00 6.073044e+00 5.971862e+00
5.950397e+00 6.013255e+00 5.983454e+00
5.965379e+00 6.027440e+00 6.033893e+00
5.964267e+00 6.058456e+00 5.959446e+00
6.067533e+00 5.990586e+00 5.980274e+00
5.978181e+00 6.058386e+00 6.001427e+00
5.961567e+00 6.045871e+00 6.031996e+00
6.056792e+00 6.013548e+00 6.025883e+00
5.991508e+00 6.061381e+00 5.994366e+00
5.988816e+00 6.070096e+00 5.992208e+00
6.014546e+00 6.074602e+00 5.973207e+00
6.008698e+00 6.081966e+00 5.973562e+00
6.002737e+00 6.081964e+00 5.979022e+00
6.057492e+00 6.013546e+00 6.025134e+00
6.052000e+00 6.020158e+00 6.024213e+00
6.058154e+00 6.013516e+00 6.024347e+00
6.051649e+00 6.018821e+00 6.025464e+00
5.973852e+00 6.041503e+00 6.019765e+00
6.058759e+00 6.013521e+00 6.023431e+00
6.008105e+00 6.089360e+00 5.974561e+00
6.007392e+00 6.087900e+00 5.975264e+00
5.964703e+00 6.026052e+00 6.034731e+00
6.004760e+00 6.086418e+00 5.978477e+00
5.996941e+00 6.058828e+00 5.986483e+00
6.059412e+00 6.013489e+00 6.022639e+00
6.060085e+00 6.013499e+00 6.021817e+00
6.009123e+00 6.086412e+00 5.972447e+00
5.971491e+00 6.031710e+00 6.028695e+00
5.962024e+00 6.023373e+00 6.039664e+00
5.961490e+00 6.023403e+00 6.040645e+00
5.962508e+00 6.023361e+00 6.038662e+00
5.962980e+00 6.023326e+00 6.037586e+00
5.963343e+00 6.023295e+00 6.036381e+00
5.964247e+00 6.023214e+00 6.034109e+00
6.060780e+00 6.013491e+00 6.021060e+00
6.061458e+00 6.013472e+00 6.020288e+00
6.034077e+00 5.989413e+00 6.047366e+00
6.035050e+00 5.989431e+00 6.047051e+00
6.036000e+00 5.989450e+00 6.046670e+00
6.036886e+00 5.989463e+00 6.046193e+00
6.037773e+00 5.989478e+00 6.045721e+00
6.038569e+00 5.989470e+00 6.045123e+00
6.039378e+00 5.989476e+00 6.044529e+00
6.040193e+00 5.989476e+00 6.043943e+00
6.041008e+00 5.989478e+00 6.043365e+00
6.041938e+00 5.989506e+00 6.042969e+00
6.042901e+00 5.989534e+00 6.042610e+00
6.043837e+00 5.989549e+00 6.042206e+00
6.062081e+00 6.013453e+00 6.019427e+00
6.062734e+00 6.013525e+00 6.018463e+00
6.046825e+00 5.989631e+00 6.041275e+00
6.047846e+00 5.989660e+00 6.040995e+00
6.048802e+00 5.989680e+00 6.040620e+00
6.049645e+00 5.989692e+00 6.040084e+00
6.050420e+00 5.989684e+00 6.039445e+00
6.051265e+00 5.989691e+00 6.038903e+00
6.052150e+00 5.989713e+00 6.038457e+00
6.053075e+00 5.989711e+00 6.037989e+00
6.053885e+00 5.989712e+00 6.037400e+00
6.054545e+00 5.989692e+00 6.036578e+00
6.055158e+00 5.989670e+00 6.035714e+00
6.055731e+00 5.989642e+00 6.034781e+00
6.056569e+00 5.989647e+00 6.034243e+00
6.057522e+00 5.989665e+00 6.033868e+00
6.058520e+00 5.989694e+00 6.033560e+00
6.059398e+00 5.989704e+00 6.033070e+00
6.060173e+00 5.989698e+00 6.032427e+00
6.060840e+00 5.989678e+00 6.031608e+00
6.061499e+00 5.989666e+00 6.030823e+00
6.062164e+00 5.989644e+00 6.029999e+00
6.062778e+00 5.989624e+00 6.029139e+00
6.063410e+00 5.989605e+00 6.028292e+00
6.064089e+00 5.989591e+00 6.027527e+00
6.064786e+00 5.989579e+00 6.026775e+00
6.065460e+00 5.989563e+00 6.026004e+00
6.066113e+00 5.989544e+00 6.025178e+00
6.066751e+00 5.989523e+00 6.024339e+00
6.067354e+00 5.989498e+00 6.023476e+00
6.067917e+00 5.989467e+00 6.022480e+00
6.068413e+00 5.989430e+00 6.021502e+00
6.068896e+00 5.989381e+00 6.020382e+00
6.069493e+00 5.989353e+00 6.019507e+00
6.070055e+00 5.989317e+00 6.018551e+00
6.070535e+00 5.989269e+00 6.017491e+00
6.009344e+00 6.067296e+00 5.983274e+00
5.960110e+00 6.040213e+00 6.035060e+00
6.065482e+00 6.004123e+00 6.020835e+00
6.072051e+00 5.995169e+00 5.994229e+00
5.949100e+00 6.008248e+00 6.025298e+00
5.937420e+00 6.003135e+00 6.009456e+00
5.976364e+00 6.023084e+00 6.023340e+00
5.965095e+00 6.024618e+00 6.033525e+00
5.963263e+00 6.014298e+00 6.028885e+00
5.988822e+00 6.062757e+00 5.995685e+00
