-2.040545e-02 1.756188e-01 -5.152934e-03
-2.002112e-02 1.757118e-01 -5.550495e-03
-1.963669e-02 1.758038e-01 -5.948207e-03
-1.920998e-02 1.758834e-01 -6.226895e-03
-1.886791e-02 1.759887e-01 -6.743386e-03
-1.852595e-02 1.760951e-01 -7.259821e-03
-1.818400e-02 1.762014e-01 -7.776256e-03
-1.784193e-02 1.763067e-01 -8.292747e-03
-1.758475e-02 1.764396e-01 -9.046929e-03
-1.715803e-02 1.765193e-01 -9.325618e-03
-1.668884e-02 1.765846e-01 -9.485582e-03
-7.750835e-02 1.761779e-01 -3.722559e-02
-7.690363e-02 1.761986e-01 -3.700631e-02
-7.638923e-02 1.762487e-01 -3.703988e-02
-7.582965e-02 1.762837e-01 -3.694715e-02
-7.517963e-02 1.762881e-01 -3.660162e-02
-7.493645e-02 1.764296e-01 -3.739338e-02
-7.446726e-02 1.764950e-01 -3.755334e-02
-7.413372e-02 1.766060e-01 -3.809249e-02
-7.370962e-02 1.766856e-01 -3.837891e-02
-7.324043e-02 1.767510e-01 -3.853887e-02
-7.277124e-02 1.768164e-01 -3.869884e-02
-7.248288e-02 1.769426e-01 -3.936429e-02
-7.210412e-02 1.770385e-01 -3.977705e-02
-7.172533e-02 1.771343e-01 -4.018971e-02
-7.130135e-02 1.772149e-01 -4.047607e-02
-7.096777e-02 1.773259e-01 -4.101513e-02
-7.072462e-02 1.774674e-01 -4.180698e-02
-5.299361e-02 1.717780e-01 6.311687e-03
-5.231241e-02 1.717758e-01 6.745939e-03
-5.150393e-02 1.717317e-01 7.536419e-03
-5.073791e-02 1.717019e-01 8.208175e-03
-5.014152e-02 1.717263e-01 8.404587e-03
-4.954518e-02 1.717518e-01 8.601243e-03
-4.899113e-02 1.717895e-01 8.678875e-03
-4.847959e-02 1.718416e-01 8.637690e-03
-4.796793e-02 1.718926e-01 8.596449e-03
-4.749875e-02 1.719580e-01 8.436485e-03
-4.702956e-02 1.720234e-01 8.276520e-03
-4.660284e-02 1.721031e-01 7.997832e-03
-4.617600e-02 1.721817e-01 7.719087e-03
-4.574920e-02 1.722604e-01 7.440249e-03
-4.532248e-02 1.723401e-01 7.161561e-03
-4.493806e-02 1.724321e-01 6.763850e-03
-4.451125e-02 1.725108e-01 6.485012e-03
-4.408453e-02 1.725904e-01 6.206323e-03
-4.370008e-02 1.726824e-01 5.808705e-03
-4.327336e-02 1.727621e-01 5.530017e-03
-4.288894e-02 1.728541e-01 5.132306e-03
-4.246222e-02 1.729338e-01 4.853617e-03
-4.207780e-02 1.730258e-01 4.455906e-03
-4.165096e-02 1.731045e-01 4.177161e-03
-4.126663e-02 1.731975e-01 3.779600e-03
-4.083982e-02 1.732761e-01 3.500762e-03
-4.049787e-02 1.733824e-01 2.984327e-03
-4.007115e-02 1.734621e-01 2.705638e-03
-3.964431e-02 1.735408e-01 2.426894e-03
-3.921751e-02 1.736195e-01 2.148056e-03
-3.874832e-02 1.736848e-01 1.988091e-03
-3.832151e-02 1.737635e-01 1.709253e-03
-3.789480e-02 1.738432e-01 1.430565e-03
-3.742561e-02 1.739086e-01 1.270600e-03
-3.695642e-02 1.739739e-01 1.110635e-03
-3.652961e-02 1.740526e-01 8.317974e-04
-3.606042e-02 1.741180e-01 6.718328e-04
-3.559123e-02 1.741834e-01 5.118681e-04
-3.516443e-02 1.742621e-01 2.330301e-04
-3.469524e-02 1.743274e-01 7.306548e-05
-3.422605e-02 1.743928e-01 -8.689918e-05
-3.375686e-02 1.744582e-01 -2.468638e-04
-3.328767e-02 1.745235e-01 -4.068285e-04
-3.281849e-02 1.745889e-01 -5.667931e-04
-3.234930e-02 1.746543e-01 -7.267578e-04
-3.192258e-02 1.747339e-01 -1.005446e-03
-3.141092e-02 1.747850e-01 -1.046687e-03
-3.094173e-02 1.748504e-01 -1.206652e-03
-3.047254e-02 1.749157e-01 -1.366616e-03
-3.000335e-02 1.749811e-01 -1.526581e-03
-2.953416e-02 1.750465e-01 -1.686546e-03
-2.906498e-02 1.751119e-01 -1.846510e-03
-2.859579e-02 1.751772e-01 -2.006475e-03
-2.812660e-02 1.752426e-01 -2.166440e-03
-2.765741e-02 1.753080e-01 -2.326404e-03
-2.714584e-02 1.753600e-01 -2.367496e-03
-2.667665e-02 1.754254e-01 -2.527460e-03
-2.620746e-02 1.754908e-01 -2.687425e-03
-2.573827e-02 1.755561e-01 -2.847390e-03
-2.526908e-02 1.756215e-01 -3.007354e-03
-2.479989e-02 1.756869e-01 -3.167319e-03
-2.433070e-02 1.757522e-01 -3.327284e-03
-2.390390e-02 1.758309e-01 -3.606122e-03
-2.343471e-02 1.758963e-01 -3.766086e-03
-2.296552e-02 1.759617e-01 -3.926051e-03
-2.253880e-02 1.760413e-01 -4.204739e-03
-2.211200e-02 1.761200e-01 -4.483577e-03
-2.164281e-02 1.761854e-01 -4.643542e-03
-2.121600e-02 1.762641e-01 -4.922380e-03
-2.083163e-02 1.763570e-01 -5.319848e-03
-2.040483e-02 1.764357e-01 -5.598686e-03
-1.997811e-02 1.765154e-01 -5.877375e-03
-1.955131e-02 1.765941e-01 -6.156213e-03
-1.920936e-02 1.767004e-01 -6.672648e-03
-1.882490e-02 1.767924e-01 -7.070265e-03
-1.852542e-02 1.769130e-01 -7.705424e-03
-1.818335e-02 1.770183e-01 -8.221915e-03
-1.784140e-02 1.771246e-01 -8.738350e-03
-1.754192e-02 1.772452e-01 -9.373509e-03
-1.703026e-02 1.772963e-01 -9.414750e-03
-7.649319e-02 1.771306e-01 -3.776588e-02
-7.597879e-02 1.771807e-01 -3.779945e-02
-7.578085e-02 1.773374e-01 -3.871769e-02
-7.526645e-02 1.773876e-01 -3.875126e-02
-7.470687e-02 1.774225e-01 -3.865853e-02
-7.437329e-02 1.775335e-01 -3.919758e-02
-7.399458e-02 1.776303e-01 -3.961010e-02
-7.366103e-02 1.777414e-01 -4.014925e-02
-7.314663e-02 1.777915e-01 -4.018282e-02
-7.267744e-02 1.778569e-01 -4.034278e-02
-7.234386e-02 1.779679e-01 -4.088184e-02
-7.182949e-02 1.780181e-01 -4.091550e-02
-7.145070e-02 1.781139e-01 -4.132816e-02
-7.102673e-02 1.781945e-01 -4.161452e-02
-7.073836e-02 1.783207e-01 -4.227998e-02
-7.040487e-02 1.784328e-01 -4.281889e-02
-7.007132e-02 1.785438e-01 -4.335804e-02
-5.180017e-02 1.726439e-01 6.258853e-03
-5.111888e-02 1.726407e-01 6.692955e-03
-5.031043e-02 1.725966e-01 7.483342e-03
-4.962915e-02 1.725934e-01 7.917445e-03
-4.899037e-02 1.726045e-01 8.232730e-03
-4.839395e-02 1.726289e-01 8.429236e-03
-4.788229e-02 1.726800e-01 8.387995e-03
-4.737075e-02 1.727321e-01 8.346810e-03
-4.690156e-02 1.727974e-01 8.186846e-03
-4.643237e-02 1.728628e-01 8.026881e-03
-4.600553e-02 1.729415e-01 7.748136e-03
-4.553634e-02 1.730069e-01 7.588172e-03
-4.515201e-02 1.730998e-01 7.190610e-03
-4.468282e-02 1.731652e-01 7.030645e-03
-4.429849e-02 1.732582e-01 6.633084e-03
-4.387168e-02 1.733369e-01 6.354246e-03
-4.344484e-02 1.734156e-01 6.075501e-03
-4.306051e-02 1.735086e-01 5.677939e-03
-4.263379e-02 1.735882e-01 5.399251e-03
-4.224937e-02 1.736802e-01 5.001540e-03
-4.182265e-02 1.737599e-01 4.722851e-03
-4.143828e-02 1.738529e-01 4.325383e-03
-4.101148e-02 1.739316e-01 4.046545e-03
-4.062714e-02 1.740246e-01 3.648983e-03
-4.024272e-02 1.741166e-01 3.251272e-03
-3.981600e-02 1.741962e-01 2.972583e-03
-3.943163e-02 1.742892e-01 2.575115e-03
-3.900483e-02 1.743679e-01 2.296277e-03
-3.857802e-02 1.744466e-01 2.017439e-03
-3.810883e-02 1.745120e-01 1.857475e-03
-3.768212e-02 1.745916e-01 1.578786e-03
-3.725531e-02 1.746703e-01 1.299948e-03
-3.678612e-02 1.747357e-01 1.139984e-03
-3.635932e-02 1.748144e-01 8.611456e-04
-3.589013e-02 1.748797e-01 7.011810e-04
-3.542094e-02 1.749451e-01 5.412163e-04
-3.499422e-02 1.750248e-01 2.625279e-04
-3.452503e-02 1.750901e-01 1.025632e-04
-3.405584e-02 1.751555e-01 -5.740145e-05
-3.358665e-02 1.752209e-01 -2.173661e-04
-3.315982e-02 1.752996e-01 -4.961105e-04
-3.269063e-02 1.753649e-01 -6.560752e-04
-3.222144e-02 1.754303e-01 -8.160398e-04
-3.175225e-02 1.754957e-01 -9.760045e-04
-3.128306e-02 1.755610e-01 -1.135969e-03
-3.081387e-02 1.756264e-01 -1.295934e-03
-3.034468e-02 1.756918e-01 -1.455898e-03
-2.991796e-02 1.757714e-01 -1.734587e-03
-2.940631e-02 1.758225e-01 -1.775828e-03
-2.897959e-02 1.759022e-01 -2.054516e-03
-2.846793e-02 1.759533e-01 -2.095757e-03
-2.799874e-02 1.760186e-01 -2.255722e-03
-2.752955e-02 1.760840e-01 -2.415686e-03
-2.706036e-02 1.761494e-01 -2.575651e-03
-2.663364e-02 1.762290e-01 -2.854339e-03
-2.612198e-02 1.762801e-01 -2.895580e-03
-2.565279e-02 1.763455e-01 -3.055545e-03
-2.518361e-02 1.764108e-01 -3.215510e-03
-2.471442e-02 1.764762e-01 -3.375474e-03
-2.424523e-02 1.765416e-01 -3.535439e-03
-2.381851e-02 1.766212e-01 -3.814127e-03
-2.339170e-02 1.766999e-01 -4.092965e-03
-2.292252e-02 1.767653e-01 -4.252930e-03
-2.249571e-02 1.768440e-01 -4.531768e-03
-2.206899e-02 1.769237e-01 -4.810456e-03
-2.164219e-02 1.770023e-01 -5.089294e-03
-2.117300e-02 1.770677e-01 -5.249259e-03
-2.074628e-02 1.771474e-01 -5.527948e-03
-2.036183e-02 1.772394e-01 -5.925565e-03
-1.993511e-02 1.773191e-01 -6.204254e-03
-1.955069e-02 1.774111e-01 -6.601965e-03
-1.920879e-02 1.775183e-01 -7.118157e-03
-1.882437e-02 1.776103e-01 -7.515868e-03
-1.848242e-02 1.777166e-01 -8.032303e-03
-1.814052e-02 1.778239e-01 -8.548495e-03
-1.779857e-02 1.779302e-01 -9.064931e-03
-1.749897e-02 1.780498e-01 -9.700145e-03
-1.694504e-02 1.780886e-01 -9.622457e-03
-7.816881e-02 1.780987e-01 -3.994070e-02
-7.774484e-02 1.781793e-01 -4.022706e-02
-7.727565e-02 1.782447e-01 -4.038702e-02
-7.689689e-02 1.783405e-01 -4.079978e-02
-7.611115e-02 1.782983e-01 -4.007522e-02
-7.550631e-02 1.783180e-01 -3.985600e-02
-7.499194e-02 1.783682e-01 -3.988966e-02
-7.452276e-02 1.784335e-01 -4.004962e-02
-7.418918e-02 1.785446e-01 -4.058868e-02
-7.381042e-02 1.786404e-01 -4.100144e-02
-7.343174e-02 1.787372e-01 -4.141404e-02
-7.296255e-02 1.788026e-01 -4.157401e-02
-7.244807e-02 1.788517e-01 -4.160773e-02
-7.197888e-02 1.789171e-01 -4.176769e-02
-7.160017e-02 1.790139e-01 -4.218020e-02
-7.117620e-02 1.790945e-01 -4.246656e-02
-7.084265e-02 1.792055e-01 -4.300571e-02
-7.037346e-02 1.792709e-01 -4.316568e-02
-7.003997e-02 1.793829e-01 -4.370459e-02
-6.970642e-02 1.794940e-01 -4.424374e-02
-6.937293e-02 1.796060e-01 -4.478265e-02
-5.060664e-02 1.735087e-01 6.205869e-03
-4.975568e-02 1.734503e-01 7.115072e-03
-4.911691e-02 1.734614e-01 7.430358e-03
-4.843554e-02 1.734573e-01 7.864311e-03
-4.779667e-02 1.734674e-01 8.179447e-03
-4.728510e-02 1.735194e-01 8.138356e-03
-4.681591e-02 1.735848e-01 7.978391e-03
-4.630434e-02 1.736369e-01 7.937300e-03
-4.583515e-02 1.737022e-01 7.777335e-03
-4.536596e-02 1.737676e-01 7.617371e-03
-4.493916e-02 1.738463e-01 7.338533e-03
-4.451235e-02 1.739250e-01 7.059695e-03
-4.404316e-02 1.739904e-01 6.899730e-03
-4.365883e-02 1.740833e-01 6.502168e-03
-4.323211e-02 1.741630e-01 6.223480e-03
-4.284774e-02 1.742560e-01 5.826011e-03
-4.242094e-02 1.743347e-01 5.547173e-03
-4.199422e-02 1.744143e-01 5.268485e-03
-4.160988e-02 1.745073e-01 4.870923e-03
-4.118305e-02 1.745860e-01 4.592179e-03
-4.079871e-02 1.746790e-01 4.194617e-03
-4.037191e-02 1.747577e-01 3.915779e-03
-3.998757e-02 1.748507e-01 3.518217e-03
-3.956082e-02 1.749303e-01 3.239622e-03
-3.917648e-02 1.750233e-01 2.842061e-03
-3.874968e-02 1.751020e-01 2.563223e-03
-3.832296e-02 1.751817e-01 2.284534e-03
-3.789616e-02 1.752604e-01 2.005696e-03
-3.751179e-02 1.753533e-01 1.608228e-03
-3.704260e-02 1.754187e-01 1.448263e-03
-3.661579e-02 1.754974e-01 1.169425e-03
-3.614660e-02 1.755628e-01 1.009461e-03
-3.571989e-02 1.756424e-01 7.307723e-04
-3.525070e-02 1.757078e-01 5.708076e-04
-3.482389e-02 1.757865e-01 2.919696e-04
-3.435470e-02 1.758519e-01 1.320050e-04
-3.388551e-02 1.759172e-01 -2.795968e-05
-3.345880e-02 1.759969e-01 -3.066481e-04
-3.298961e-02 1.760623e-01 -4.666128e-04
-3.252042e-02 1.761276e-01 -6.265774e-04
-3.209361e-02 1.762063e-01 -9.054154e-04
-3.162442e-02 1.762717e-01 -1.065380e-03
-3.115524e-02 1.763371e-01 -1.225345e-03
-3.068605e-02 1.764024e-01 -1.385309e-03
-3.021686e-02 1.764678e-01 -1.545274e-03
-2.979014e-02 1.765475e-01 -1.823962e-03
-2.932095e-02 1.766129e-01 -1.983927e-03
-2.885176e-02 1.766782e-01 -2.143892e-03
-2.834010e-02 1.767293e-01 -2.185133e-03
-2.791338e-02 1.768090e-01 -2.463821e-03
-2.744420e-02 1.768743e-01 -2.623786e-03
-2.697501e-02 1.769397e-01 -2.783750e-03
-2.650582e-02 1.770051e-01 -2.943715e-03
-2.603663e-02 1.770704e-01 -3.103680e-03
-2.556744e-02 1.771358e-01 -3.263644e-03
-2.514060e-02 1.772145e-01 -3.542389e-03
-2.462906e-02 1.772665e-01 -3.583574e-03
-2.420222e-02 1.773452e-01 -3.862318e-03
-2.377551e-02 1.774249e-01 -4.141007e-03
-2.330632e-02 1.774903e-01 -4.300971e-03
-2.287951e-02 1.775689e-01 -4.579809e-03
-2.245279e-02 1.776486e-01 -4.858498e-03
-2.198360e-02 1.777140e-01 -5.018462e-03
-2.159918e-02 1.778060e-01 -5.416174e-03
-2.117243e-02 1.778857e-01 -5.694768e-03
-2.074563e-02 1.779643e-01 -5.973606e-03
-2.031891e-02 1.780440e-01 -6.252295e-03
-1.993457e-02 1.781370e-01 -6.649857e-03
-1.955020e-02 1.782300e-01 -7.047325e-03
-1.916587e-02 1.783230e-01 -7.444887e-03
-1.882392e-02 1.784293e-01 -7.961322e-03
-1.848193e-02 1.785356e-01 -8.477663e-03
-1.809760e-02 1.786286e-01 -8.875225e-03
-1.784047e-02 1.787625e-01 -9.629164e-03
-1.737128e-02 1.788278e-01 -9.789128e-03
-1.690209e-02 1.788932e-01 -9.949093e-03
-7.780391e-02 1.790489e-01 -4.082640e-02
-7.738002e-02 1.791305e-01 -4.111261e-02
-7.682032e-02 1.791644e-01 -4.101993e-02
-7.635113e-02 1.792298e-01 -4.117990e-02
-7.583673e-02 1.792799e-01 -4.121347e-02
-7.527706e-02 1.793138e-01 -4.112088e-02
-7.476265e-02 1.793640e-01 -4.115445e-02
-7.433868e-02 1.794446e-01 -4.144081e-02
-7.391479e-02 1.795262e-01 -4.172702e-02
-7.353600e-02 1.796220e-01 -4.213969e-02
-7.311202e-02 1.797026e-01 -4.242605e-02
-7.259762e-02 1.797527e-01 -4.245962e-02
-7.217365e-02 1.798333e-01 -4.274598e-02
-7.174976e-02 1.799149e-01 -4.303219e-02
-7.128057e-02 1.799803e-01 -4.319215e-02
-7.090181e-02 1.800761e-01 -4.360491e-02
-7.047783e-02 1.801567e-01 -4.389127e-02
-7.005395e-02 1.802383e-01 -4.417748e-02
-6.967519e-02 1.803341e-01 -4.459023e-02
-6.929639e-02 1.804299e-01 -4.500289e-02
-6.891772e-02 1.805267e-01 -4.541550e-02
-6.867469e-02 1.806692e-01 -4.620729e-02
-4.924340e-02 1.743183e-01 6.628079e-03
-4.864701e-02 1.743428e-01 6.824491e-03
-4.788082e-02 1.743110e-01 7.495948e-03
-4.724196e-02 1.743211e-01 7.811084e-03
-4.668792e-02 1.743589e-01 7.888717e-03
-4.617626e-02 1.744100e-01 7.847476e-03
-4.566468e-02 1.744620e-01 7.806384e-03
-4.523788e-02 1.745407e-01 7.527546e-03
-4.476869e-02 1.746061e-01 7.367582e-03
-4.429950e-02 1.746714e-01 7.207617e-03
-4.387278e-02 1.747511e-01 6.928929e-03
-4.344598e-02 1.748298e-01 6.650091e-03
-4.301926e-02 1.749095e-01 6.371402e-03
-4.259242e-02 1.749881e-01 6.092658e-03
-4.216570e-02 1.750678e-01 5.813969e-03
-4.178137e-02 1.751608e-01 5.416408e-03
-4.139703e-02 1.752538e-01 5.018846e-03
-4.097028e-02 1.753334e-01 4.740251e-03
-4.054348e-02 1.754121e-01 4.461413e-03
-4.015914e-02 1.755051e-01 4.063851e-03
-3.973242e-02 1.755848e-01 3.785163e-03
-3.934805e-02 1.756778e-01 3.387694e-03
-3.892125e-02 1.757565e-01 3.108856e-03
-3.853691e-02 1.758494e-01 2.711295e-03
-3.811020e-02 1.759291e-01 2.432606e-03
-3.768344e-02 1.760088e-01 2.154011e-03
-3.729911e-02 1.761018e-01 1.756450e-03
-3.687230e-02 1.761804e-01 1.477612e-03
-3.640311e-02 1.762458e-01 1.317647e-03
-3.597640e-02 1.763255e-01 1.038958e-03
-3.554959e-02 1.764042e-01 7.601205e-04
-3.508040e-02 1.764695e-01 6.001558e-04
-3.465365e-02 1.765492e-01 3.215609e-04
-3.418446e-02 1.766146e-01 1.615963e-04
-3.375766e-02 1.766933e-01 -1.172417e-04
-3.328847e-02 1.767586e-01 -2.772064e-04
-3.281928e-02 1.768240e-01 -4.371710e-04
-3.239256e-02 1.769037e-01 -7.158595e-04
-3.192337e-02 1.769690e-01 -8.758241e-04
-3.145418e-02 1.770344e-01 -1.035789e-03
-3.098499e-02 1.770998e-01 -1.195753e-03
-3.055819e-02 1.771785e-01 -1.474591e-03
-3.008900e-02 1.772438e-01 -1.634556e-03
-2.961981e-02 1.773092e-01 -1.794521e-03
-2.919309e-02 1.773889e-01 -2.073209e-03
-2.868143e-02 1.774399e-01 -2.114450e-03
-2.825471e-02 1.775196e-01 -2.393138e-03
-2.778553e-02 1.775850e-01 -2.553103e-03
-2.731634e-02 1.776504e-01 -2.713068e-03
-2.684715e-02 1.777157e-01 -2.873032e-03
-2.642034e-02 1.777944e-01 -3.151870e-03
-2.595115e-02 1.778598e-01 -3.311835e-03
-2.548197e-02 1.779251e-01 -3.471800e-03
-2.505521e-02 1.780048e-01 -3.750395e-03
-2.458602e-02 1.780702e-01 -3.910359e-03
-2.415922e-02 1.781489e-01 -4.189197e-03
-2.369003e-02 1.782142e-01 -4.349162e-03
-2.326331e-02 1.782939e-01 -4.627850e-03
-2.279412e-02 1.783593e-01 -4.787815e-03
-2.236740e-02 1.784389e-01 -5.066503e-03
-2.194060e-02 1.785176e-01 -5.345341e-03
-2.151388e-02 1.785973e-01 -5.624030e-03
-2.108704e-02 1.786760e-01 -5.902774e-03
-2.070271e-02 1.787690e-01 -6.300336e-03
-2.027599e-02 1.788486e-01 -6.579025e-03
-1.989162e-02 1.789416e-01 -6.976493e-03
-1.954967e-02 1.790479e-01 -7.492928e-03
-1.916530e-02 1.791409e-01 -7.890396e-03
-1.878105e-02 1.792349e-01 -8.287808e-03
-1.843910e-02 1.793412e-01 -8.804243e-03
-1.809720e-02 1.794485e-01 -9.320435e-03
-1.775525e-02 1.795548e-01 -9.836871e-03
-1.720121e-02 1.795925e-01 -9.759238e-03
-7.748443e-02 1.800162e-01 -4.183829e-02
-7.710576e-02 1.801131e-01 -4.225090e-02
-7.654605e-02 1.801470e-01 -4.215822e-02
-7.589592e-02 1.801505e-01 -4.181275e-02
-7.556246e-02 1.802625e-01 -4.235175e-02
-7.500276e-02 1.802964e-01 -4.225908e-02
-7.448835e-02 1.803466e-01 -4.229265e-02
-7.401917e-02 1.804119e-01 -4.245261e-02
-7.364049e-02 1.805088e-01 -4.286522e-02
-7.321652e-02 1.805893e-01 -4.315158e-02
-7.274733e-02 1.806547e-01 -4.331154e-02
-7.232335e-02 1.807353e-01 -4.359790e-02
-7.189947e-02 1.808169e-01 -4.388411e-02
-7.143028e-02 1.808823e-01 -4.404408e-02
-7.100630e-02 1.809629e-01 -4.433044e-02
-7.053711e-02 1.810282e-01 -4.449040e-02
-7.011314e-02 1.811088e-01 -4.477676e-02
-6.968917e-02 1.811894e-01 -4.506312e-02
-6.926528e-02 1.812710e-01 -4.534933e-02
-6.893182e-02 1.813830e-01 -4.588834e-02
-6.855554e-02 1.814797e-01 -4.630801e-02
-6.818176e-02 1.815772e-01 -4.673471e-02
-6.785568e-02 1.816907e-01 -4.729472e-02
-4.817720e-02 1.752251e-01 6.218774e-03
-4.724125e-02 1.751371e-01 7.365182e-03
-4.664474e-02 1.751606e-01 7.561538e-03
-4.604826e-02 1.751840e-01 7.757801e-03
-4.557907e-02 1.752494e-01 7.597836e-03
-4.506750e-02 1.753014e-01 7.556745e-03
-4.459831e-02 1.753668e-01 7.396780e-03
-4.417150e-02 1.754455e-01 7.117942e-03
-4.370231e-02 1.755109e-01 6.957978e-03
-4.323313e-02 1.755762e-01 6.798013e-03
-4.280641e-02 1.756559e-01 6.519325e-03
-4.237969e-02 1.757356e-01 6.240636e-03
-4.195285e-02 1.758143e-01 5.961892e-03
-4.156852e-02 1.759072e-01 5.564330e-03
-4.114180e-02 1.759869e-01 5.285642e-03
-4.071508e-02 1.760666e-01 5.006953e-03
-4.033071e-02 1.761596e-01 4.609485e-03
-3.990390e-02 1.762382e-01 4.330647e-03
-3.951966e-02 1.763322e-01 3.933235e-03
-3.913529e-02 1.764252e-01 3.535766e-03
-3.870848e-02 1.765039e-01 3.256928e-03
-3.828176e-02 1.765836e-01 2.978240e-03
-3.785505e-02 1.766632e-01 2.699552e-03
-3.747068e-02 1.767562e-01 2.302083e-03
-3.704396e-02 1.768359e-01 2.023395e-03
-3.661715e-02 1.769146e-01 1.744557e-03
-3.619044e-02 1.769942e-01 1.465868e-03
-3.580607e-02 1.770872e-01 1.068400e-03
-3.533688e-02 1.771526e-01 9.084356e-04
-3.491016e-02 1.772323e-01 6.297471e-04
-3.448335e-02 1.773109e-01 3.509091e-04
-3.401417e-02 1.773763e-01 1.909445e-04
-3.358745e-02 1.774560e-01 -8.774399e-05
-3.311826e-02 1.775214e-01 -2.477086e-04
-3.269145e-02 1.776000e-01 -5.265466e-04
-3.222226e-02 1.776654e-01 -6.865113e-04
-3.175308e-02 1.777308e-01 -8.464759e-04
-3.128389e-02 1.777961e-01 -1.006441e-03
-3.085714e-02 1.778758e-01 -1.285035e-03
-3.043042e-02 1.779555e-01 -1.563724e-03
-2.991876e-02 1.780065e-01 -1.604965e-03
-2.949204e-02 1.780862e-01 -1.883653e-03
-2.906523e-02 1.781649e-01 -2.162491e-03
-2.859604e-02 1.782303e-01 -2.322456e-03
-2.812686e-02 1.782956e-01 -2.482421e-03
-2.765767e-02 1.783610e-01 -2.642385e-03
-2.718848e-02 1.784264e-01 -2.802350e-03
-2.676176e-02 1.785061e-01 -3.081038e-03
-2.629257e-02 1.785714e-01 -3.241003e-03
-2.586577e-02 1.786501e-01 -3.519841e-03
-2.539658e-02 1.787155e-01 -3.679806e-03
-2.492739e-02 1.787808e-01 -3.839770e-03
-2.450064e-02 1.788605e-01 -4.118365e-03
-2.407392e-02 1.789402e-01 -4.397054e-03
-2.364711e-02 1.790189e-01 -4.675892e-03
-2.317792e-02 1.790842e-01 -4.835856e-03
-2.275121e-02 1.791639e-01 -5.114545e-03
-2.232449e-02 1.792436e-01 -5.393233e-03
-2.189765e-02 1.793223e-01 -5.671978e-03
-2.147093e-02 1.794019e-01 -5.950666e-03
-2.104412e-02 1.794806e-01 -6.229504e-03
-2.061741e-02 1.795603e-01 -6.508192e-03
-2.027551e-02 1.796676e-01 -7.024384e-03
-1.989117e-02 1.797605e-01 -7.421946e-03
-1.950681e-02 1.798535e-01 -7.819414e-03
-1.916494e-02 1.799608e-01 -8.335700e-03
-1.878061e-02 1.800538e-01 -8.733262e-03
-1.843871e-02 1.801611e-01 -9.249454e-03
-1.809681e-02 1.802684e-01 -9.765646e-03
-1.762762e-02 1.803337e-01 -9.925611e-03
-1.715843e-02 1.803991e-01 -1.008558e-02
-7.744638e-02 1.810803e-01 -4.363614e-02
-7.692950e-02 1.811296e-01 -4.366278e-02
-7.646031e-02 1.811950e-01 -4.382275e-02
-7.580280e-02 1.811969e-01 -4.345627e-02
-7.519780e-02 1.812147e-01 -4.323734e-02
-7.477391e-02 1.812962e-01 -4.352356e-02
-7.425942e-02 1.813454e-01 -4.355727e-02
-7.374502e-02 1.813955e-01 -4.359084e-02
-7.332104e-02 1.814761e-01 -4.387720e-02
-7.294237e-02 1.815729e-01 -4.428981e-02
-7.247318e-02 1.816383e-01 -4.444977e-02
-7.204929e-02 1.817199e-01 -4.473598e-02
-7.148959e-02 1.817538e-01 -4.464331e-02
-7.111092e-02 1.818506e-01 -4.505591e-02
-7.068694e-02 1.819312e-01 -4.534227e-02
-7.017254e-02 1.819814e-01 -4.537584e-02
-6.974856e-02 1.820620e-01 -4.566220e-02
-6.937479e-02 1.821595e-01 -4.608890e-02
-6.895329e-02 1.822409e-01 -4.638218e-02
-6.853180e-02 1.823223e-01 -4.667547e-02
-6.815802e-02 1.824198e-01 -4.710216e-02
-6.783194e-02 1.825334e-01 -4.766218e-02
-6.745813e-02 1.826309e-01 -4.808878e-02
-6.708436e-02 1.827284e-01 -4.851547e-02
-4.689873e-02 1.760614e-01 6.403238e-03
-4.600517e-02 1.759867e-01 7.430772e-03
-4.553598e-02 1.760520e-01 7.270808e-03
-4.498188e-02 1.760888e-01 7.348197e-03
-4.447031e-02 1.761409e-01 7.307106e-03
-4.400112e-02 1.762062e-01 7.147141e-03
-4.353193e-02 1.762716e-01 6.987176e-03
-4.306274e-02 1.763370e-01 6.827212e-03
-4.263594e-02 1.764157e-01 6.548374e-03
-4.220919e-02 1.764953e-01 6.269779e-03
-4.178247e-02 1.765750e-01 5.991091e-03
-4.135575e-02 1.766547e-01 5.712402e-03
-4.092894e-02 1.767334e-01 5.433564e-03
-4.050223e-02 1.768130e-01 5.154876e-03
-4.007551e-02 1.768927e-01 4.876187e-03
-3.969114e-02 1.769857e-01 4.478719e-03
-3.926442e-02 1.770654e-01 4.200030e-03
-3.888005e-02 1.771583e-01 3.802562e-03
-3.849572e-02 1.772513e-01 3.405000e-03
-3.802653e-02 1.773167e-01 3.245036e-03
-3.764225e-02 1.774107e-01 2.847717e-03
-3.725791e-02 1.775036e-01 2.450155e-03
-3.683119e-02 1.775833e-01 2.171467e-03
-3.640448e-02 1.776630e-01 1.892778e-03
-3.602011e-02 1.777560e-01 1.495310e-03
-3.559339e-02 1.778356e-01 1.216622e-03
-3.516658e-02 1.779143e-01 9.377838e-04
-3.469739e-02 1.779797e-01 7.778191e-04
-3.427068e-02 1.780594e-01 4.991307e-04
-3.384392e-02 1.781390e-01 2.205358e-04
-3.341712e-02 1.782177e-01 -5.830222e-05
-3.294793e-02 1.782831e-01 -2.182669e-04
-3.252121e-02 1.783627e-01 -4.969553e-04
-3.205202e-02 1.784281e-01 -6.569200e-04
-3.158283e-02 1.784935e-01 -8.168846e-04
-3.115611e-02 1.785732e-01 -1.095573e-03
-3.072928e-02 1.786518e-01 -1.374318e-03
-3.026009e-02 1.787172e-01 -1.534282e-03
-2.979090e-02 1.787826e-01 -1.694247e-03
-2.936418e-02 1.788622e-01 -1.972935e-03
-2.889499e-02 1.789276e-01 -2.132900e-03
-2.846827e-02 1.790073e-01 -2.411588e-03
-2.799908e-02 1.790727e-01 -2.571553e-03
-2.757228e-02 1.791513e-01 -2.850391e-03
-2.710309e-02 1.792167e-01 -3.010356e-03
-2.663390e-02 1.792821e-01 -3.170320e-03
-2.620718e-02 1.793617e-01 -3.449009e-03
-2.573799e-02 1.794271e-01 -3.608973e-03
-2.531128e-02 1.795068e-01 -3.887662e-03
-2.488452e-02 1.795864e-01 -4.166257e-03
-2.441533e-02 1.796518e-01 -4.326221e-03
-2.403100e-02 1.797448e-01 -4.723783e-03
-2.356181e-02 1.798102e-01 -4.883748e-03
-2.313509e-02 1.798898e-01 -5.162436e-03
-2.270829e-02 1.799685e-01 -5.441274e-03
-2.228154e-02 1.800482e-01 -5.719869e-03
-2.185482e-02 1.801279e-01 -5.998558e-03
-2.142801e-02 1.802066e-01 -6.277396e-03
-2.100129e-02 1.802862e-01 -6.556084e-03
-2.061692e-02 1.803792e-01 -6.953552e-03
-2.023268e-02 1.804732e-01 -7.350965e-03
-1.984831e-02 1.805662e-01 -7.748433e-03
-1.950644e-02 1.806734e-01 -8.264718e-03
-1.912216e-02 1.807674e-01 -8.662037e-03
-1.873783e-02 1.808604e-01 -9.059599e-03
-1.839593e-02 1.809677e-01 -9.575791e-03
-1.805406e-02 1.810750e-01 -1.009208e-02
-1.745755e-02 1.810984e-01 -9.895720e-03
-7.751811e-02 1.819560e-01 -4.427008e-02
-7.695354e-02 1.819893e-01 -4.416340e-02
-7.648435e-02 1.820547e-01 -4.432337e-02
-7.596744e-02 1.821040e-01 -4.434992e-02
-7.535509e-02 1.821202e-01 -4.411008e-02
-7.493359e-02 1.822016e-01 -4.440336e-02
-7.451210e-02 1.822830e-01 -4.469665e-02
-7.399522e-02 1.823323e-01 -4.472329e-02
-7.338292e-02 1.823495e-01 -4.448321e-02
-7.300915e-02 1.824470e-01 -4.490990e-02
-7.263534e-02 1.825445e-01 -4.533650e-02
-7.221393e-02 1.826269e-01 -4.562964e-02
-7.164927e-02 1.826592e-01 -4.552311e-02
-7.122777e-02 1.827406e-01 -4.581640e-02
-7.080636e-02 1.828230e-01 -4.610953e-02
-7.028940e-02 1.828713e-01 -4.613633e-02
-6.982021e-02 1.829367e-01 -4.629629e-02
-6.944652e-02 1.830352e-01 -4.672284e-02
-6.897733e-02 1.831006e-01 -4.688280e-02
-6.855583e-02 1.831820e-01 -4.717609e-02
-6.818203e-02 1.832795e-01 -4.760269e-02
-6.776056e-02 1.833609e-01 -4.789607e-02
-6.738676e-02 1.834584e-01 -4.832267e-02
-6.696526e-02 1.835399e-01 -4.861595e-02
-6.663918e-02 1.836534e-01 -4.917596e-02
-6.636087e-02 1.837840e-01 -4.986915e-02
-4.545045e-02 1.768404e-01 7.062409e-03
-4.493879e-02 1.768915e-01 7.021168e-03
-4.438475e-02 1.769292e-01 7.098801e-03
-4.387312e-02 1.769803e-01 7.057467e-03
-4.340394e-02 1.770457e-01 6.897502e-03
-4.293475e-02 1.771111e-01 6.737537e-03
-4.246556e-02 1.771764e-01 6.577573e-03
-4.199637e-02 1.772418e-01 6.417608e-03
-4.156962e-02 1.773215e-01 6.139013e-03
-4.114290e-02 1.774011e-01 5.860325e-03
-4.071609e-02 1.774798e-01 5.581487e-03
-4.028937e-02 1.775595e-01 5.302798e-03
-3.990509e-02 1.776534e-01 4.905479e-03
-3.947829e-02 1.777321e-01 4.626641e-03
-3.905157e-02 1.778118e-01 4.347953e-03
-3.862485e-02 1.778915e-01 4.069265e-03
-3.824048e-02 1.779845e-01 3.671796e-03
-3.781376e-02 1.780641e-01 3.393108e-03
-3.742952e-02 1.781581e-01 2.995696e-03
-3.700268e-02 1.782368e-01 2.716951e-03
-3.661843e-02 1.783307e-01 2.319539e-03
-3.619168e-02 1.784104e-01 2.040944e-03
-3.580734e-02 1.785034e-01 1.643382e-03
-3.538062e-02 1.785831e-01 1.364694e-03
-3.495390e-02 1.786627e-01 1.086005e-03
-3.452715e-02 1.787424e-01 8.074104e-04
-3.410035e-02 1.788211e-01 5.285724e-04
-3.367363e-02 1.789008e-01 2.498840e-04
-3.324691e-02 1.789804e-01 -2.880449e-05
-3.277772e-02 1.790458e-01 -1.887691e-04
-3.235097e-02 1.791255e-01 -4.673640e-04
-3.188178e-02 1.791908e-01 -6.273287e-04
-3.145498e-02 1.792695e-01 -9.061667e-04
-3.102826e-02 1.793492e-01 -1.184855e-03
-3.055907e-02 1.794146e-01 -1.344820e-03
-3.013235e-02 1.794942e-01 -1.623508e-03
-2.966316e-02 1.795596e-01 -1.783473e-03
-2.923644e-02 1.796393e-01 -2.062161e-03
-2.876725e-02 1.797046e-01 -2.222126e-03
-2.834041e-02 1.797833e-01 -2.500870e-03
-2.791370e-02 1.798630e-01 -2.779559e-03
-2.744451e-02 1.799283e-01 -2.939524e-03
-2.697532e-02 1.799937e-01 -3.099488e-03
-2.654860e-02 1.800734e-01 -3.378177e-03
-2.612188e-02 1.801531e-01 -3.656865e-03
-2.565269e-02 1.802184e-01 -3.816830e-03
-2.522589e-02 1.802971e-01 -4.095668e-03
-2.479913e-02 1.803768e-01 -4.374263e-03
-2.437242e-02 1.804564e-01 -4.652951e-03
-2.390323e-02 1.805218e-01 -4.812916e-03
-2.347651e-02 1.806015e-01 -5.091604e-03
-2.309214e-02 1.806945e-01 -5.489072e-03
-2.262295e-02 1.807598e-01 -5.649037e-03
-2.219623e-02 1.808395e-01 -5.927726e-03
-2.176951e-02 1.809192e-01 -6.206414e-03
-2.138515e-02 1.810122e-01 -6.603882e-03
-2.095843e-02 1.810918e-01 -6.882571e-03
-2.057418e-02 1.811858e-01 -7.279983e-03
-2.018981e-02 1.812788e-01 -7.677451e-03
-1.980556e-02 1.813728e-01 -8.074863e-03
-1.946366e-02 1.814800e-01 -8.591055e-03
-1.907942e-02 1.815740e-01 -8.988468e-03
-1.869505e-02 1.816670e-01 -9.385936e-03
-1.839562e-02 1.817886e-01 -1.002085e-02
-1.784161e-02 1.818263e-01 -9.943313e-03
-7.707293e-02 1.828811e-01 -4.493057e-02
-7.655605e-02 1.829304e-01 -4.495721e-02
-7.613455e-02 1.830118e-01 -4.525050e-02
-7.566536e-02 1.830772e-01 -4.541046e-02
-7.510079e-02 1.831104e-01 -4.530379e-02
-7.458391e-02 1.831597e-01 -4.533044e-02
-7.421010e-02 1.832572e-01 -4.575704e-02
-7.364553e-02 1.832905e-01 -4.565036e-02
-7.322404e-02 1.833719e-01 -4.594365e-02
-7.270716e-02 1.834212e-01 -4.597029e-02
-7.228566e-02 1.835027e-01 -4.626358e-02
-7.176878e-02 1.835520e-01 -4.629022e-02
-7.129959e-02 1.836173e-01 -4.645019e-02
-7.087809e-02 1.836988e-01 -4.674347e-02
-7.045659e-02 1.837802e-01 -4.703675e-02
-6.993971e-02 1.838295e-01 -4.706340e-02
-6.951822e-02 1.839109e-01 -4.735668e-02
-6.909672e-02 1.839924e-01 -4.764997e-02
-6.867525e-02 1.840738e-01 -4.794334e-02
-6.820606e-02 1.841392e-01 -4.810331e-02
-6.778457e-02 1.842206e-01 -4.839659e-02
-6.736316e-02 1.843030e-01 -4.868973e-02
-6.698935e-02 1.844005e-01 -4.911633e-02
-6.656785e-02 1.844819e-01 -4.940961e-02
-6.624186e-02 1.845965e-01 -4.996948e-02
-6.591577e-02 1.847100e-01 -5.052949e-02
-4.489579e-02 1.776951e-01 6.694289e-03
-4.434166e-02 1.777319e-01 6.771772e-03
-4.378756e-02 1.777687e-01 6.849162e-03
-4.331837e-02 1.778340e-01 6.689197e-03
-4.280672e-02 1.778851e-01 6.647956e-03
-4.233753e-02 1.779505e-01 6.487991e-03
-4.186834e-02 1.780158e-01 6.328027e-03
-4.139915e-02 1.780812e-01 6.168062e-03
-4.097243e-02 1.781609e-01 5.889374e-03
-4.050324e-02 1.782263e-01 5.729409e-03
-4.007652e-02 1.783059e-01 5.450721e-03
-3.964977e-02 1.783856e-01 5.172126e-03
-3.926552e-02 1.784796e-01 4.774713e-03
-3.879633e-02 1.785449e-01 4.614749e-03
-3.836953e-02 1.786236e-01 4.335911e-03
-3.798525e-02 1.787176e-01 3.938592e-03
-3.760100e-02 1.788116e-01 3.541180e-03
-3.717428e-02 1.788912e-01 3.262491e-03
-3.678991e-02 1.789842e-01 2.865023e-03
-3.636319e-02 1.790639e-01 2.586335e-03
-3.593647e-02 1.791435e-01 2.307646e-03
-3.555219e-02 1.792375e-01 1.910328e-03
-3.512547e-02 1.793172e-01 1.631639e-03
-3.474111e-02 1.794102e-01 1.234171e-03
-3.431439e-02 1.794898e-01 9.554824e-04
-3.388767e-02 1.795695e-01 6.767940e-04
-3.346095e-02 1.796492e-01 3.981055e-04
-3.303423e-02 1.797288e-01 1.194170e-04
-3.260739e-02 1.798075e-01 -1.593274e-04
-3.218067e-02 1.798872e-01 -4.380158e-04
-3.175396e-02 1.799669e-01 -7.167043e-04
-3.128477e-02 1.800322e-01 -8.766689e-04
-3.085801e-02 1.801119e-01 -1.155264e-03
-3.043130e-02 1.801916e-01 -1.433952e-03
-3.000458e-02 1.802712e-01 -1.712641e-03
-2.953539e-02 1.803366e-01 -1.872605e-03
-2.910858e-02 1.804153e-01 -2.151443e-03
-2.868183e-02 1.804950e-01 -2.430038e-03
-2.825511e-02 1.805746e-01 -2.708727e-03
-2.778592e-02 1.806400e-01 -2.868691e-03
-2.731673e-02 1.807054e-01 -3.028656e-03
-2.689002e-02 1.807850e-01 -3.307345e-03
-2.646330e-02 1.808647e-01 -3.586033e-03
-2.599411e-02 1.809301e-01 -3.745998e-03
-2.556736e-02 1.810097e-01 -4.024593e-03
-2.514055e-02 1.810884e-01 -4.303431e-03
-2.471383e-02 1.811681e-01 -4.582119e-03
-2.424464e-02 1.812335e-01 -4.742084e-03
-2.381793e-02 1.813131e-01 -5.020772e-03
-2.343364e-02 1.814071e-01 -5.418091e-03
-2.296445e-02 1.814725e-01 -5.578055e-03
-2.253774e-02 1.815521e-01 -5.856744e-03
-2.211093e-02 1.816308e-01 -6.135582e-03
-2.172665e-02 1.817248e-01 -6.532901e-03
-2.134240e-02 1.818188e-01 -6.930313e-03
-2.091568e-02 1.818984e-01 -7.209001e-03
-2.053131e-02 1.819914e-01 -7.606470e-03
-2.018950e-02 1.820997e-01 -8.122512e-03
-1.980525e-02 1.821936e-01 -8.519924e-03
-1.942089e-02 1.822866e-01 -8.917393e-03
-1.907911e-02 1.823949e-01 -9.433529e-03
-1.865235e-02 1.824746e-01 -9.712123e-03
-1.818317e-02 1.825399e-01 -9.872088e-03
-7.672321e-02 1.838392e-01 -4.585755e-02
-7.611095e-02 1.838564e-01 -4.561756e-02
-7.568945e-02 1.839378e-01 -4.591084e-02
-7.522026e-02 1.840032e-01 -4.607080e-02
-7.470338e-02 1.840525e-01 -4.609745e-02
-7.423419e-02 1.841179e-01 -4.625742e-02
-7.376501e-02 1.841833e-01 -4.641738e-02
-7.329582e-02 1.842486e-01 -4.657734e-02
-7.277894e-02 1.842979e-01 -4.660399e-02
-7.240513e-02 1.843954e-01 -4.703059e-02
-7.188825e-02 1.844447e-01 -4.705724e-02
-7.141906e-02 1.845101e-01 -4.721720e-02
-7.094987e-02 1.845755e-01 -4.737717e-02
-7.052837e-02 1.846569e-01 -4.767045e-02
-7.005919e-02 1.847223e-01 -4.783042e-02
-6.963769e-02 1.848037e-01 -4.812370e-02
-6.916850e-02 1.848691e-01 -4.828366e-02
-6.874700e-02 1.849505e-01 -4.857695e-02
-6.827781e-02 1.850159e-01 -4.873691e-02
-6.780862e-02 1.850812e-01 -4.889688e-02
-6.743490e-02 1.851797e-01 -4.932333e-02
-6.701341e-02 1.852611e-01 -4.961661e-02
-6.659194e-02 1.853426e-01 -4.990999e-02
-6.621822e-02 1.854411e-01 -5.033644e-02
-6.584441e-02 1.855386e-01 -5.076304e-02
-6.556611e-02 1.856692e-01 -5.145623e-02
-6.533546e-02 1.858158e-01 -5.228264e-02
-4.374456e-02 1.785723e-01 6.522282e-03
-4.323290e-02 1.786234e-01 6.481042e-03
-4.267880e-02 1.786602e-01 6.558431e-03
-4.220962e-02 1.787255e-01 6.398466e-03
-4.174043e-02 1.787909e-01 6.238502e-03
-4.127124e-02 1.788563e-01 6.078537e-03
-4.080205e-02 1.789216e-01 5.918572e-03
-4.037533e-02 1.790013e-01 5.639884e-03
-3.990614e-02 1.790667e-01 5.479919e-03
-3.943695e-02 1.791320e-01 5.319955e-03
-3.901020e-02 1.792117e-01 5.041360e-03
-3.858348e-02 1.792914e-01 4.762671e-03
-3.819923e-02 1.793854e-01 4.365259e-03
-3.777240e-02 1.794640e-01 4.086515e-03
-3.738815e-02 1.795580e-01 3.689102e-03
-3.696143e-02 1.796377e-01 3.410414e-03
-3.653468e-02 1.797173e-01 3.131819e-03
-3.615043e-02 1.798113e-01 2.734407e-03
-3.572371e-02 1.798910e-01 2.455718e-03
-3.533943e-02 1.799849e-01 2.058400e-03
-3.491271e-02 1.800646e-01 1.779711e-03
-3.452834e-02 1.801576e-01 1.382243e-03
-3.410162e-02 1.802373e-01 1.103554e-03
-3.367490e-02 1.803169e-01 8.248660e-04
-3.329062e-02 1.804109e-01 4.275473e-04
-3.286390e-02 1.804906e-01 1.488588e-04
-3.243718e-02 1.805702e-01 -1.298296e-04
-3.201043e-02 1.806499e-01 -4.084245e-04
-3.158371e-02 1.807296e-01 -6.871130e-04
-3.115699e-02 1.808092e-01 -9.658015e-04
-3.073028e-02 1.808889e-01 -1.244490e-03
-3.026109e-02 1.809543e-01 -1.404455e-03
-2.983433e-02 1.810339e-01 -1.683049e-03
-2.940753e-02 1.811126e-01 -1.961887e-03
-2.898081e-02 1.811923e-01 -2.240576e-03
-2.855409e-02 1.812720e-01 -2.519264e-03
-2.808490e-02 1.813373e-01 -2.679229e-03
-2.765815e-02 1.814170e-01 -2.957824e-03
-2.723143e-02 1.814967e-01 -3.236512e-03
-2.680471e-02 1.815763e-01 -3.515201e-03
-2.633553e-02 1.816417e-01 -3.675165e-03
-2.590877e-02 1.817214e-01 -3.953760e-03
-2.548205e-02 1.818010e-01 -4.232449e-03
-2.505534e-02 1.818807e-01 -4.511137e-03
-2.458615e-02 1.819461e-01 -4.671102e-03
-2.420186e-02 1.820400e-01 -5.068421e-03
-2.373268e-02 1.821054e-01 -5.228385e-03
-2.330587e-02 1.821841e-01 -5.507223e-03
-2.287915e-02 1.822638e-01 -5.785912e-03
-2.249487e-02 1.823577e-01 -6.183230e-03
-2.206815e-02 1.824374e-01 -6.461919e-03
-2.168390e-02 1.825314e-01 -6.859331e-03
-2.125715e-02 1.826110e-01 -7.137926e-03
-2.087290e-02 1.827050e-01 -7.535338e-03
-2.053100e-02 1.828123e-01 -8.051530e-03
-2.014676e-02 1.829063e-01 -8.448943e-03
-1.980494e-02 1.830145e-01 -8.964985e-03
-1.942066e-02 1.831085e-01 -9.362304e-03
-1.899394e-02 1.831882e-01 -9.640992e-03
-1.852476e-02 1.832535e-01 -9.800957e-03
-7.618270e-02 1.847331e-01 -4.625116e-02
-7.580898e-02 1.848316e-01 -4.667761e-02
-7.524432e-02 1.848639e-01 -4.657109e-02
-7.477513e-02 1.849292e-01 -4.673105e-02
-7.430594e-02 1.849946e-01 -4.689102e-02
-7.378906e-02 1.850439e-01 -4.691766e-02
-7.336757e-02 1.851253e-01 -4.721095e-02
-7.289838e-02 1.851907e-01 -4.737091e-02
-7.247696e-02 1.852731e-01 -4.766405e-02
-7.205547e-02 1.853545e-01 -4.795733e-02
-7.149081e-02 1.853868e-01 -4.785081e-02
-7.111709e-02 1.854853e-01 -4.827726e-02
-7.060021e-02 1.855346e-01 -4.830390e-02
-7.017871e-02 1.856160e-01 -4.859719e-02
-6.970952e-02 1.856814e-01 -4.875715e-02
-6.928803e-02 1.857628e-01 -4.905044e-02
-6.881884e-02 1.858282e-01 -4.921040e-02
-6.839742e-02 1.859106e-01 -4.950353e-02
-6.788046e-02 1.859589e-01 -4.953033e-02
-6.750674e-02 1.860574e-01 -4.995678e-02
-6.708524e-02 1.861388e-01 -5.025007e-02
-6.671152e-02 1.862373e-01 -5.067652e-02
-6.624233e-02 1.863027e-01 -5.083648e-02
-6.582083e-02 1.863841e-01 -5.112977e-02
-6.559031e-02 1.865318e-01 -5.195612e-02
-6.531197e-02 1.866624e-01 -5.264921e-02
-6.489047e-02 1.867438e-01 -5.294249e-02
-4.335974e-02 1.794842e-01 5.679361e-03
-4.267827e-02 1.794781e-01 6.112828e-03
-4.216661e-02 1.795292e-01 6.071587e-03
-4.161252e-02 1.795660e-01 6.148977e-03
-4.114333e-02 1.796313e-01 5.989012e-03
-4.067414e-02 1.796967e-01 5.829047e-03
-4.020495e-02 1.797621e-01 5.669083e-03
-3.973576e-02 1.798274e-01 5.509118e-03
-3.926657e-02 1.798928e-01 5.349153e-03
-3.883982e-02 1.799725e-01 5.070558e-03
-3.841310e-02 1.800521e-01 4.791870e-03
-3.798638e-02 1.801318e-01 4.513182e-03
-3.755966e-02 1.802115e-01 4.234493e-03
-3.713291e-02 1.802911e-01 3.955898e-03
-3.670619e-02 1.803708e-01 3.677210e-03
-3.632191e-02 1.804648e-01 3.279891e-03
-3.589519e-02 1.805444e-01 3.001203e-03
-3.546847e-02 1.806241e-01 2.722514e-03
-3.508419e-02 1.807181e-01 2.325195e-03
-3.469994e-02 1.808120e-01 1.927783e-03
-3.427319e-02 1.808917e-01 1.649188e-03
-3.388886e-02 1.809847e-01 1.251626e-03
-3.346214e-02 1.810644e-01 9.729380e-04
-3.307786e-02 1.811583e-01 5.756193e-04
-3.265114e-02 1.812380e-01 2.969308e-04
-3.222438e-02 1.813177e-01 1.833593e-05
-3.184014e-02 1.814116e-01 -3.790763e-04
-3.141342e-02 1.814913e-01 -6.577648e-04
-3.098667e-02 1.815710e-01 -9.363597e-04
-3.055995e-02 1.816506e-01 -1.215048e-03
-3.013323e-02 1.817303e-01 -1.493737e-03
-2.970648e-02 1.818100e-01 -1.772332e-03
-2.927976e-02 1.818896e-01 -2.051020e-03
-2.885304e-02 1.819693e-01 -2.329708e-03
-2.842632e-02 1.820490e-01 -2.608397e-03
-2.795713e-02 1.821144e-01 -2.768362e-03
-2.753038e-02 1.821940e-01 -3.046956e-03
-2.710366e-02 1.822737e-01 -3.325645e-03
-2.667694e-02 1.823534e-01 -3.604333e-03
-2.625022e-02 1.824330e-01 -3.883022e-03
-2.578103e-02 1.824984e-01 -4.042986e-03
-2.535428e-02 1.825781e-01 -4.321581e-03
-2.492756e-02 1.826577e-01 -4.600270e-03
-2.450084e-02 1.827374e-01 -4.878958e-03
-2.407409e-02 1.828171e-01 -5.157553e-03
-2.364737e-02 1.828967e-01 -5.436242e-03
-2.322066e-02 1.829764e-01 -5.714930e-03
-2.283637e-02 1.830704e-01 -6.112249e-03
-2.240965e-02 1.831500e-01 -6.390937e-03
-2.202537e-02 1.832440e-01 -6.788256e-03
-2.159865e-02 1.833237e-01 -7.066944e-03
-2.125684e-02 1.834319e-01 -7.582987e-03
-2.087259e-02 1.835259e-01 -7.980399e-03
-2.053078e-02 1.836342e-01 -8.496442e-03
-2.014650e-02 1.837281e-01 -8.893760e-03
-1.971978e-02 1.838078e-01 -9.172449e-03
-1.929306e-02 1.838875e-01 -9.451137e-03
-1.895125e-02 1.839957e-01 -9.967180e-03
-7.489474e-02 1.858240e-01 -4.749768e-02
-7.437783e-02 1.858733e-01 -4.752423e-02
-7.390864e-02 1.859386e-01 -4.768419e-02
-7.343945e-02 1.860040e-01 -4.784416e-02
-7.297026e-02 1.860694e-01 -4.800412e-02
-7.254880e-02 1.861508e-01 -4.829750e-02
-7.217505e-02 1.862493e-01 -4.872386e-02
-7.156270e-02 1.862655e-01 -4.848402e-02
-7.118901e-02 1.863640e-01 -4.891056e-02
-7.071982e-02 1.864293e-01 -4.907053e-02
-7.020286e-02 1.864777e-01 -4.909732e-02
-6.978144e-02 1.865601e-01 -4.939046e-02
-6.931225e-02 1.866254e-01 -4.955042e-02
-6.889072e-02 1.867069e-01 -4.984361e-02
-6.851704e-02 1.868053e-01 -5.027016e-02
-6.809554e-02 1.868868e-01 -5.056344e-02
-6.757866e-02 1.869361e-01 -5.059009e-02
-6.715716e-02 1.870175e-01 -5.088337e-02
-6.678341e-02 1.871160e-01 -5.130973e-02
-6.655285e-02 1.872636e-01 -5.213599e-02
-6.585310e-02 1.874766e-01 -5.312221e-02
-6.524075e-02 1.874928e-01 -5.288237e-02
-6.486694e-02 1.875903e-01 -5.330897e-02
-4.216608e-02 1.803471e-01 5.625984e-03
-4.152704e-02 1.803553e-01 5.940821e-03
-4.105785e-02 1.804207e-01 5.780857e-03
-4.063113e-02 1.805003e-01 5.502168e-03
-4.011947e-02 1.805514e-01 5.460927e-03
-3.960773e-02 1.806015e-01 5.419537e-03
-3.913854e-02 1.806669e-01 5.259572e-03
-3.866935e-02 1.807322e-01 5.099608e-03
-3.824272e-02 1.808129e-01 4.821069e-03
-3.781600e-02 1.808926e-01 4.542380e-03
-3.734681e-02 1.809579e-01 4.382416e-03
-3.692006e-02 1.810376e-01 4.103821e-03
-3.649334e-02 1.811173e-01 3.825132e-03
-3.606662e-02 1.811969e-01 3.546444e-03
-3.568234e-02 1.812909e-01 3.149125e-03
-3.525562e-02 1.813706e-01 2.870437e-03
-3.487134e-02 1.814645e-01 2.473118e-03
-3.444462e-02 1.815442e-01 2.194429e-03
-3.406034e-02 1.816382e-01 1.797111e-03
-3.367609e-02 1.817321e-01 1.399698e-03
-3.324942e-02 1.818128e-01 1.121253e-03
-3.286518e-02 1.819067e-01 7.238408e-04
-3.243846e-02 1.819864e-01 4.451524e-04
-3.205418e-02 1.820804e-01 4.783366e-05
-3.162746e-02 1.821601e-01 -2.308548e-04
-3.124318e-02 1.822540e-01 -6.281735e-04
-3.081646e-02 1.823337e-01 -9.068620e-04
-3.038970e-02 1.824133e-01 -1.185457e-03
-2.996299e-02 1.824930e-01 -1.464145e-03
-2.957870e-02 1.825870e-01 -1.861464e-03
-2.915207e-02 1.826676e-01 -2.140003e-03
-2.868288e-02 1.827330e-01 -2.299968e-03
-2.825616e-02 1.828127e-01 -2.578656e-03
-2.782945e-02 1.828923e-01 -2.857345e-03
-2.740269e-02 1.829720e-01 -3.135939e-03
-2.697597e-02 1.830517e-01 -3.414628e-03
-2.654926e-02 1.831314e-01 -3.693316e-03
-2.612250e-02 1.832110e-01 -3.971911e-03
-2.569579e-02 1.832907e-01 -4.250600e-03
-2.526907e-02 1.833704e-01 -4.529288e-03
-2.479988e-02 1.834357e-01 -4.689253e-03
-2.441560e-02 1.835297e-01 -5.086572e-03
-2.398888e-02 1.836094e-01 -5.365260e-03
-2.360460e-02 1.837033e-01 -5.762579e-03
-2.317788e-02 1.837830e-01 -6.041267e-03
-2.279368e-02 1.838779e-01 -6.438436e-03
-2.240943e-02 1.839719e-01 -6.835849e-03
-2.198271e-02 1.840516e-01 -7.114537e-03
-2.159843e-02 1.841455e-01 -7.511856e-03
-2.121415e-02 1.842395e-01 -7.909175e-03
-2.087234e-02 1.843478e-01 -8.425217e-03
-2.048809e-02 1.844417e-01 -8.822629e-03
-2.001890e-02 1.845071e-01 -8.982594e-03
-1.959223e-02 1.845878e-01 -9.261039e-03
-7.224702e-02 1.871289e-01 -4.935692e-02
-7.173005e-02 1.871772e-01 -4.938371e-02
-7.149949e-02 1.873249e-01 -5.020997e-02
-7.093483e-02 1.873571e-01 -5.010345e-02
-7.032249e-02 1.873733e-01 -4.986361e-02
-6.985330e-02 1.874387e-01 -5.002357e-02
-6.947958e-02 1.875372e-01 -5.045003e-02
-6.905808e-02 1.876186e-01 -5.074331e-02
-6.863667e-02 1.877010e-01 -5.103644e-02
-6.831064e-02 1.878156e-01 -5.159621e-02
-4.109975e-02 1.812529e-01 5.216623e-03
-4.054566e-02 1.812897e-01 5.294013e-03
-3.999156e-02 1.813265e-01 5.371402e-03
-3.952237e-02 1.813918e-01 5.211438e-03
-3.905319e-02 1.814572e-01 5.051473e-03
-3.858400e-02 1.815226e-01 4.891508e-03
-3.811481e-02 1.815879e-01 4.731544e-03
-3.764562e-02 1.816533e-01 4.571579e-03
-3.717643e-02 1.817187e-01 4.411614e-03
-3.674968e-02 1.817983e-01 4.133019e-03
-3.628049e-02 1.818637e-01 3.973055e-03
-3.589624e-02 1.819577e-01 3.575642e-03
-3.546949e-02 1.820373e-01 3.297048e-03
-3.504277e-02 1.821170e-01 3.018359e-03
-3.465857e-02 1.822120e-01 2.621190e-03
-3.423186e-02 1.822916e-01 2.342501e-03
-3.384757e-02 1.823856e-01 1.945183e-03
-3.342086e-02 1.824653e-01 1.666494e-03
-3.303657e-02 1.825592e-01 1.269176e-03
-3.265241e-02 1.826542e-01 8.719128e-04
-3.222566e-02 1.827338e-01 5.933179e-04
-3.184141e-02 1.828278e-01 1.959057e-04
-3.145713e-02 1.829218e-01 -2.014130e-04
-3.103050e-02 1.830024e-01 -4.799520e-04
-3.064621e-02 1.830964e-01 -8.772707e-04
-3.021950e-02 1.831761e-01 -1.155959e-03
-2.979274e-02 1.832557e-01 -1.434554e-03
-2.936602e-02 1.833354e-01 -1.713243e-03
-2.898186e-02 1.834304e-01 -2.110505e-03
-2.855511e-02 1.835100e-01 -2.389100e-03
-2.812839e-02 1.835897e-01 -2.667789e-03
-2.770167e-02 1.836694e-01 -2.946477e-03
-2.727492e-02 1.837490e-01 -3.225072e-03
-2.684820e-02 1.838287e-01 -3.503760e-03
-2.642154e-02 1.839093e-01 -3.782206e-03
-2.599482e-02 1.839890e-01 -4.060894e-03
-2.556810e-02 1.840687e-01 -4.339583e-03
-2.514138e-02 1.841484e-01 -4.618271e-03
-2.471463e-02 1.842280e-01 -4.896866e-03
-2.433038e-02 1.843220e-01 -5.294278e-03
-2.394618e-02 1.844169e-01 -5.691448e-03
-2.356190e-02 1.845109e-01 -6.088766e-03
-2.317765e-02 1.846049e-01 -6.486179e-03
-2.279346e-02 1.846998e-01 -6.883348e-03
-2.236674e-02 1.847795e-01 -7.162036e-03
-2.193999e-02 1.848591e-01 -7.440631e-03
-2.155574e-02 1.849531e-01 -7.838043e-03
-2.117146e-02 1.850471e-01 -8.235362e-03
-2.082973e-02 1.851563e-01 -8.751255e-03
-2.040301e-02 1.852360e-01 -9.029944e-03
-1.984892e-02 1.852728e-01 -8.952554e-03
-4.007599e-02 1.821740e-01 4.688688e-03
-3.943690e-02 1.821812e-01 5.003282e-03
-3.896771e-02 1.822465e-01 4.843318e-03
-3.845605e-02 1.822976e-01 4.802077e-03
-3.798686e-02 1.823630e-01 4.642112e-03
-3.751767e-02 1.824283e-01 4.482147e-03
-3.704849e-02 1.824937e-01 4.322183e-03
-3.662177e-02 1.825734e-01 4.043494e-03
-3.615258e-02 1.826388e-01 3.883530e-03
-3.572583e-02 1.827184e-01 3.604935e-03
-3.525664e-02 1.827838e-01 3.444970e-03
-3.487247e-02 1.828787e-01 3.047707e-03
-3.444572e-02 1.829584e-01 2.769112e-03
-3.401900e-02 1.830381e-01 2.490424e-03
-3.363481e-02 1.831330e-01 2.093255e-03
-3.320809e-02 1.832127e-01 1.814566e-03
-3.282381e-02 1.833067e-01 1.417248e-03
-3.243965e-02 1.834016e-01 1.019985e-03
-3.201289e-02 1.834813e-01 7.413900e-04
-3.162865e-02 1.835752e-01 3.439777e-04
-3.124445e-02 1.836702e-01 -5.319150e-05
-3.081773e-02 1.837499e-01 -3.318800e-04
-3.047597e-02 1.838591e-01 -8.476794e-04
-3.004925e-02 1.839388e-01 -1.126368e-03
-2.962253e-02 1.840184e-01 -1.405056e-03
-2.923834e-02 1.841134e-01 -1.802226e-03
-2.885409e-02 1.842074e-01 -2.199638e-03
-2.838490e-02 1.842727e-01 -2.359602e-03
-2.795815e-02 1.843524e-01 -2.638197e-03
-2.753143e-02 1.844321e-01 -2.916886e-03
-2.710480e-02 1.845127e-01 -3.195425e-03
-2.672052e-02 1.846067e-01 -3.592743e-03
-2.629376e-02 1.846863e-01 -3.871338e-03
-2.586713e-02 1.847670e-01 -4.149877e-03
-2.544041e-02 1.848467e-01 -4.428566e-03
-2.505613e-02 1.849406e-01 -4.825884e-03
-2.467194e-02 1.850356e-01 -5.223054e-03
-2.437268e-02 1.851591e-01 -5.857670e-03
-2.398843e-02 1.852531e-01 -6.255083e-03
-2.360415e-02 1.853471e-01 -6.652401e-03
-2.317748e-02 1.854277e-01 -6.930847e-03
-2.275077e-02 1.855074e-01 -7.209535e-03
-2.232405e-02 1.855871e-01 -7.488224e-03
-2.189729e-02 1.856667e-01 -7.766819e-03
-2.151313e-02 1.857617e-01 -8.164081e-03
-2.112885e-02 1.858556e-01 -8.561400e-03
-2.070213e-02 1.859353e-01 -8.840089e-03
-2.065777e-02 1.861466e-01 -1.018647e-02
-3.900979e-02 1.830807e-01 4.279383e-03
-3.845557e-02 1.831165e-01 4.356717e-03
-3.794395e-02 1.831676e-01 4.315382e-03
-3.743220e-02 1.832177e-01 4.273992e-03
-3.696301e-02 1.832831e-01 4.114027e-03
-3.653638e-02 1.833637e-01 3.835488e-03
-3.602463e-02 1.834138e-01 3.794098e-03
-3.555544e-02 1.834792e-01 3.634133e-03
-3.512881e-02 1.835598e-01 3.355594e-03
-3.474453e-02 1.836538e-01 2.958276e-03
-3.427534e-02 1.837192e-01 2.798311e-03
-3.389115e-02 1.838141e-01 2.401142e-03
-3.346443e-02 1.838938e-01 2.122453e-03
-3.303779e-02 1.839744e-01 1.843915e-03
-3.265351e-02 1.840684e-01 1.446596e-03
-3.222676e-02 1.841480e-01 1.168001e-03
-3.180013e-02 1.842287e-01 8.894620e-04
-3.145840e-02 1.843380e-01 3.735690e-04
-3.103168e-02 1.844176e-01 9.488052e-05
-3.064749e-02 1.845126e-01 -3.022887e-04
-3.026321e-02 1.846065e-01 -6.996074e-04
-2.987904e-02 1.847015e-01 -1.096870e-03
-2.945229e-02 1.847812e-01 -1.375465e-03
-2.906813e-02 1.848761e-01 -1.772728e-03
-2.864138e-02 1.849558e-01 -2.051323e-03
-2.821466e-02 1.850354e-01 -2.330011e-03
-2.778803e-02 1.851161e-01 -2.608550e-03
-2.740374e-02 1.852101e-01 -3.005869e-03
-2.701955e-02 1.853050e-01 -3.403038e-03
-2.655036e-02 1.853704e-01 -3.563003e-03
-2.616608e-02 1.854643e-01 -3.960321e-03
-2.573945e-02 1.855450e-01 -4.238860e-03
-2.535516e-02 1.856390e-01 -4.636179e-03
-2.505591e-02 1.857625e-01 -5.270796e-03
-2.471418e-02 1.858718e-01 -5.786689e-03
-2.437246e-02 1.859810e-01 -6.302582e-03
-2.394571e-02 1.860607e-01 -6.581177e-03
-2.356154e-02 1.861556e-01 -6.978439e-03
-2.317735e-02 1.862506e-01 -7.375609e-03
-2.270816e-02 1.863159e-01 -7.535573e-03
-2.223897e-02 1.863813e-01 -7.695538e-03
-2.181225e-02 1.864610e-01 -7.974226e-03
-2.138550e-02 1.865406e-01 -8.252821e-03
-2.112877e-02 1.866795e-01 -9.005919e-03
-3.734681e-02 1.840080e-01 4.065986e-03
-3.692018e-02 1.840887e-01 3.787447e-03
-3.645099e-02 1.841540e-01 3.627483e-03
-3.593925e-02 1.842041e-01 3.586092e-03
-3.547006e-02 1.842695e-01 3.426128e-03
-3.504342e-02 1.843501e-01 3.147589e-03
-3.461667e-02 1.844298e-01 2.868994e-03
-3.414748e-02 1.844952e-01 2.709029e-03
-3.372085e-02 1.845758e-01 2.430490e-03
-3.329413e-02 1.846555e-01 2.151802e-03
-3.290994e-02 1.847505e-01 1.754632e-03
-3.248318e-02 1.848301e-01 1.476038e-03
-3.205647e-02 1.849098e-01 1.197349e-03
-3.167227e-02 1.850047e-01 8.001799e-04
-3.128811e-02 1.850997e-01 4.029172e-04
-3.086136e-02 1.851794e-01 1.243223e-04
-3.047719e-02 1.852743e-01 -2.729405e-04
