-5.131985e-02 7.065612e-02 3.403400e-02
6.781150e-03 1.287571e-01 5.491400e-02
6.753150e-03 1.287291e-01 5.452600e-02
6.764150e-03 1.287401e-01 5.401300e-02
6.767150e-03 1.287431e-01 5.335500e-02
6.772150e-03 1.287481e-01 5.263100e-02
6.779150e-03 1.287551e-01 5.190900e-02
6.789150e-03 1.287651e-01 5.140300e-02
6.761150e-03 1.287371e-01 5.101000e-02
6.714150e-03 1.286901e-01 5.067600e-02
6.715150e-03 1.286911e-01 5.025800e-02
6.685150e-03 1.286611e-01 4.986100e-02
6.672150e-03 1.286481e-01 4.939300e-02
6.670150e-03 1.286461e-01 4.890400e-02
6.631150e-03 1.286071e-01 4.849300e-02
6.601150e-03 1.285771e-01 4.823400e-02
6.579150e-03 1.285551e-01 4.785500e-02
6.564150e-03 1.285401e-01 4.738700e-02
6.565150e-03 1.285411e-01 4.676900e-02
6.575150e-03 1.285511e-01 4.608900e-02
6.588150e-03 1.285641e-01 4.534300e-02
6.574150e-03 1.285501e-01 4.488100e-02
6.552150e-03 1.285281e-01 4.449300e-02
6.529150e-03 1.285051e-01 4.409500e-02
6.526150e-03 1.285021e-01 4.356100e-02
6.529150e-03 1.285051e-01 4.289200e-02
6.542150e-03 1.285181e-01 4.213100e-02
6.562150e-03 1.285381e-01 4.139600e-02
6.544150e-03 1.285201e-01 4.091200e-02
6.518150e-03 1.284941e-01 4.051600e-02
6.512150e-03 1.284881e-01 4.010700e-02
6.510150e-03 1.284861e-01 3.955000e-02
6.500150e-03 1.284761e-01 3.894800e-02
6.515150e-03 1.284911e-01 3.820500e-02
6.524150e-03 1.285001e-01 3.743300e-02
6.548150e-03 1.285241e-01 3.658400e-02
6.571150e-03 1.285471e-01 3.574500e-02
6.593150e-03 1.285691e-01 3.490000e-02
6.641150e-03 1.286171e-01 3.387700e-02
6.686150e-03 1.286621e-01 3.284900e-02
6.732150e-03 1.287081e-01 3.188000e-02
6.781150e-03 1.287571e-01 3.090700e-02
6.824150e-03 1.288001e-01 3.002300e-02
-1.775685e-02 1.042191e-01 1.116700e-02
-2.841685e-02 9.355912e-02 4.212900e-02
-5.984185e-02 6.213412e-02 4.172500e-02
-5.983585e-02 6.214012e-02 4.114000e-02
-5.985785e-02 6.211812e-02 4.061300e-02
-5.985885e-02 6.211712e-02 4.022000e-02
-5.985685e-02 6.211912e-02 3.974200e-02
-6.135785e-02 6.061812e-02 4.724100e-02
-5.975785e-02 6.221812e-02 2.868700e-02
6.259150e-03 1.282351e-01 2.933900e-02
6.238150e-03 1.282141e-01 2.889500e-02
6.232150e-03 1.282081e-01 2.839500e-02
6.224150e-03 1.282001e-01 2.780000e-02
6.226150e-03 1.282021e-01 2.719200e-02
6.238150e-03 1.282141e-01 2.646000e-02
6.259150e-03 1.282351e-01 2.566000e-02
6.277150e-03 1.282531e-01 2.487300e-02
6.309150e-03 1.282851e-01 2.393700e-02
6.343150e-03 1.283191e-01 2.298700e-02
6.323150e-03 1.282991e-01 2.206000e-02
-6.826485e-02 5.371112e-02 3.044200e-02
-4.540685e-02 7.656912e-02 3.855500e-02
-8.071685e-02 4.125912e-02 7.045000e-03
-9.111985e-02 3.085612e-02 6.950000e-04
-2.973585e-02 9.224012e-02 4.452000e-02
-9.145185e-02 3.052412e-02 -9.825000e-03
-4.568285e-02 7.629312e-02 4.296700e-02
-2.834485e-02 9.363112e-02 3.601500e-02
-5.295285e-02 6.902312e-02 4.892500e-02
-6.844585e-02 5.353012e-02 4.718700e-02
-1.072338e-01 1.474212e-02 -1.233700e-02
-9.688785e-02 2.508812e-02 -9.185000e-03
-4.660185e-02 7.537412e-02 3.900100e-02
-7.830885e-02 4.366712e-02 3.318200e-02
-7.270085e-02 4.927512e-02 4.601600e-02
-2.730785e-02 9.466812e-02 -3.805000e-03
-4.727285e-02 7.470312e-02 4.636600e-02
-4.796585e-02 7.401012e-02 3.773900e-02
-9.988585e-02 2.209012e-02 -1.598000e-02
-1.027748e-01 1.920112e-02 -9.242000e-03
-2.970085e-02 9.227512e-02 3.714600e-02
-1.027948e-01 1.918112e-02 -1.714800e-02
-7.467985e-02 4.729612e-02 2.539100e-02
-4.841185e-02 7.356412e-02 3.459900e-02
-9.412885e-02 2.784712e-02 -9.690000e-03
-1.101878e-01 1.178812e-02 -2.590600e-02
-1.116528e-01 1.032312e-02 -7.400000e-03
-9.399885e-02 2.797712e-02 -3.478000e-03
-9.102085e-02 3.095512e-02 2.417000e-03
-3.498585e-02 8.699012e-02 3.438200e-02
-7.402885e-02 4.794712e-02 3.830200e-02
-6.419385e-02 5.778212e-02 4.794200e-02
-3.710985e-02 8.486612e-02 2.216200e-02
-6.969385e-02 5.228212e-02 2.984000e-02
-7.410985e-02 4.786612e-02 4.386900e-02
-6.986385e-02 5.211212e-02 4.743300e-02
-4.985285e-02 7.212312e-02 4.037600e-02
-4.111285e-02 8.086312e-02 4.165600e-02
-8.514085e-02 3.683512e-02 4.469000e-03
-6.985985e-02 5.211612e-02 4.685200e-02
-5.559685e-02 6.637912e-02 7.277000e-03
-1.146528e-01 7.323120e-03 -2.008900e-02
-9.139485e-02 3.058112e-02 -5.259200e-02
-3.287985e-02 8.909612e-02 4.440200e-02
5.419150e-03 1.273951e-01 5.558800e-02
5.382150e-03 1.273581e-01 5.529600e-02
5.362150e-03 1.273381e-01 5.496100e-02
5.347150e-03 1.273231e-01 5.451200e-02
5.380150e-03 1.273561e-01 5.387200e-02
5.429150e-03 1.274051e-01 5.294100e-02
5.411150e-03 1.273871e-01 5.229600e-02
5.377150e-03 1.273531e-01 5.201400e-02
5.356150e-03 1.273321e-01 5.164700e-02
5.341150e-03 1.273171e-01 5.117200e-02
5.318150e-03 1.272941e-01 5.068700e-02
5.302150e-03 1.272781e-01 5.020600e-02
5.298150e-03 1.272741e-01 4.965300e-02
5.295150e-03 1.272711e-01 4.912300e-02
5.300150e-03 1.272761e-01 4.847700e-02
5.281150e-03 1.272571e-01 4.801900e-02
5.258150e-03 1.272341e-01 4.760000e-02
5.247150e-03 1.272231e-01 4.713600e-02
5.235150e-03 1.272111e-01 4.662900e-02
5.235150e-03 1.272111e-01 4.602100e-02
5.241150e-03 1.272171e-01 4.535300e-02
5.231150e-03 1.272071e-01 4.487700e-02
5.207150e-03 1.271831e-01 4.448400e-02
5.185150e-03 1.271611e-01 4.408300e-02
5.172150e-03 1.271481e-01 4.360500e-02
5.179150e-03 1.271551e-01 4.299000e-02
5.183150e-03 1.271591e-01 4.231300e-02
5.184150e-03 1.271601e-01 4.162000e-02
5.179150e-03 1.271551e-01 4.105900e-02
5.179150e-03 1.271551e-01 4.057300e-02
5.158150e-03 1.271341e-01 4.020500e-02
5.145150e-03 1.271211e-01 3.974700e-02
5.139150e-03 1.271151e-01 3.912500e-02
5.139150e-03 1.271151e-01 3.844200e-02
5.153150e-03 1.271291e-01 3.768900e-02
5.176150e-03 1.271521e-01 3.684400e-02
5.198150e-03 1.271741e-01 3.599900e-02
5.242150e-03 1.272181e-01 3.509900e-02
5.253150e-03 1.272291e-01 3.422500e-02
5.293150e-03 1.272691e-01 3.330300e-02
5.324150e-03 1.273001e-01 3.235900e-02
5.396150e-03 1.273721e-01 3.120000e-02
5.464150e-03 1.274401e-01 3.014900e-02
-3.970585e-02 8.227012e-02 -4.821000e-03
-3.981185e-02 8.216412e-02 -8.340000e-04
-1.028658e-01 1.911012e-02 -1.921200e-02
-6.683585e-02 5.514012e-02 3.645300e-02
-6.681885e-02 5.515712e-02 3.690600e-02
-6.683385e-02 5.514212e-02 3.749100e-02
-6.685385e-02 5.512212e-02 3.819200e-02
-6.687085e-02 5.510512e-02 3.907700e-02
-3.885285e-02 8.312312e-02 4.064800e-02
4.956150e-03 1.269321e-01 2.896100e-02
4.934150e-03 1.269101e-01 2.858000e-02
4.913150e-03 1.268891e-01 2.812400e-02
4.899150e-03 1.268751e-01 2.765200e-02
4.891150e-03 1.268671e-01 2.704100e-02
4.902150e-03 1.268781e-01 2.637500e-02
4.911150e-03 1.268871e-01 2.563600e-02
4.937150e-03 1.269131e-01 2.480200e-02
4.967150e-03 1.269431e-01 2.392300e-02
5.001150e-03 1.269771e-01 2.298100e-02
-6.689185e-02 5.508412e-02 4.006300e-02
-7.550485e-02 4.647112e-02 4.340200e-02
-3.616385e-02 8.581212e-02 2.626800e-02
-6.408285e-02 5.789312e-02 3.238600e-02
-8.072685e-02 4.124912e-02 6.348000e-03
-9.847185e-02 2.350412e-02 -1.623600e-02
-2.340085e-02 9.857512e-02 -2.660200e-02
-9.133185e-02 3.064412e-02 -9.031000e-03
-1.042918e-01 1.768412e-02 -1.774600e-02
-3.267385e-02 8.930212e-02 4.417600e-02
-6.968685e-02 5.228912e-02 3.315700e-02
-1.072338e-01 1.474212e-02 -1.299900e-02
-9.690685e-02 2.506912e-02 -8.805000e-03
-4.656685e-02 7.540912e-02 3.941000e-02
-7.836085e-02 4.361512e-02 3.442200e-02
-7.268485e-02 4.929112e-02 4.551200e-02
-6.559985e-02 5.637612e-02 4.686000e-02
-4.717885e-02 7.479712e-02 4.410400e-02
-4.793585e-02 7.404012e-02 3.808300e-02
-9.986485e-02 2.211112e-02 -1.553900e-02
-7.923385e-02 4.274212e-02 6.398000e-03
-4.460885e-02 7.736712e-02 7.254000e-03
-2.424185e-02 9.773412e-02 4.907100e-02
-7.689485e-02 4.508112e-02 4.274100e-02
1.981915e-02 1.417951e-01 3.826700e-02
-9.408985e-02 2.788612e-02 -1.043200e-02
-2.578885e-02 9.618712e-02 4.170300e-02
-4.553785e-02 7.643812e-02 3.609800e-02
-9.394285e-02 2.803312e-02 -2.438000e-03
-9.104585e-02 3.093012e-02 1.810000e-03
-3.216585e-02 8.981012e-02 2.738800e-02
-7.404085e-02 4.793512e-02 3.650000e-02
-6.420885e-02 5.776712e-02 4.864700e-02
-3.710885e-02 8.486712e-02 2.417200e-02
-5.684185e-02 6.513412e-02 2.476600e-02
-3.230685e-02 8.966912e-02 3.384000e-02
-6.687185e-02 5.510412e-02 3.328400e-02
-9.275685e-02 2.921912e-02 -7.349000e-03
-8.224985e-02 3.972612e-02 1.256800e-02
-3.994985e-02 8.202612e-02 1.316700e-02
-2.527685e-02 9.669912e-02 -7.561000e-03
-8.080985e-02 4.116612e-02 1.383200e-02
-3.749085e-02 8.448512e-02 -4.590000e-03
-1.161478e-01 5.828120e-03 -2.320900e-02
-3.362785e-02 8.834812e-02 4.445200e-02
-3.621585e-02 8.576012e-02 4.343400e-02
-3.740185e-02 8.457412e-02 -1.990900e-02
4.012150e-03 1.259881e-01 5.502900e-02
3.994150e-03 1.259701e-01 5.455400e-02
4.002150e-03 1.259781e-01 5.393800e-02
4.019150e-03 1.259951e-01 5.323500e-02
4.019150e-03 1.259951e-01 5.278600e-02
3.964150e-03 1.259401e-01 5.254200e-02
3.941150e-03 1.259171e-01 5.215900e-02
3.953150e-03 1.259291e-01 5.165500e-02
3.969150e-03 1.259451e-01 5.103000e-02
3.952150e-03 1.259281e-01 5.042500e-02
3.923150e-03 1.258991e-01 4.990200e-02
3.927150e-03 1.259031e-01 4.937800e-02
3.933150e-03 1.259091e-01 4.874700e-02
3.935150e-03 1.259111e-01 4.807800e-02
3.927150e-03 1.259031e-01 4.751800e-02
3.919150e-03 1.258951e-01 4.697500e-02
3.910150e-03 1.258861e-01 4.642700e-02
3.905150e-03 1.258811e-01 4.585300e-02
3.901150e-03 1.258771e-01 4.529700e-02
3.889150e-03 1.258651e-01 4.483200e-02
3.873150e-03 1.258491e-01 4.437900e-02
3.847150e-03 1.258231e-01 4.402400e-02
3.838150e-03 1.258141e-01 4.354200e-02
3.824150e-03 1.258001e-01 4.303100e-02
3.829150e-03 1.258051e-01 4.240200e-02
3.836150e-03 1.258121e-01 4.172900e-02
3.831150e-03 1.258071e-01 4.114100e-02
3.682150e-03 1.256581e-01 4.062700e-02
3.804150e-03 1.257801e-01 4.021000e-02
3.792150e-03 1.257681e-01 3.980100e-02
3.777150e-03 1.257531e-01 3.925700e-02
3.792150e-03 1.257681e-01 3.856400e-02
3.793150e-03 1.257691e-01 3.786500e-02
3.821150e-03 1.257971e-01 3.704400e-02
3.845150e-03 1.258211e-01 3.620600e-02
3.864150e-03 1.258401e-01 3.534000e-02
3.898150e-03 1.258741e-01 3.440300e-02
3.917150e-03 1.258931e-01 3.355600e-02
3.954150e-03 1.259301e-01 3.262700e-02
4.009150e-03 1.259851e-01 3.148400e-02
4.099150e-03 1.260751e-01 3.025000e-02
4.146150e-03 1.261221e-01 2.926900e-02
4.176150e-03 1.261521e-01 2.849200e-02
4.169150e-03 1.261451e-01 2.787900e-02
-3.895185e-02 8.302412e-02 3.857600e-02
-6.978585e-02 5.219012e-02 4.197000e-02
-6.976785e-02 5.220812e-02 4.099800e-02
-6.974785e-02 5.222812e-02 4.002000e-02
-6.972585e-02 5.225012e-02 3.901900e-02
-6.970185e-02 5.227412e-02 3.793500e-02
-3.896485e-02 8.301112e-02 3.820700e-02
3.657150e-03 1.256331e-01 2.814100e-02
3.634150e-03 1.256101e-01 2.775800e-02
3.595150e-03 1.255711e-01 2.727400e-02
3.589150e-03 1.255651e-01 2.678700e-02
3.583150e-03 1.255591e-01 2.615400e-02
3.602150e-03 1.255781e-01 2.546100e-02
3.609150e-03 1.255851e-01 2.465800e-02
3.632150e-03 1.256081e-01 2.381400e-02
3.668150e-03 1.256441e-01 2.287200e-02
3.707150e-03 1.256831e-01 2.191200e-02
3.748150e-03 1.257241e-01 2.088700e-02
-9.256485e-02 2.941112e-02 -3.310000e-03
-2.696985e-02 9.500612e-02 3.289100e-02
-8.073385e-02 4.124212e-02 7.693000e-03
-5.553285e-02 6.644312e-02 3.086200e-02
-2.766485e-02 9.431112e-02 -1.249800e-02
-8.369885e-02 3.827712e-02 1.501900e-02
-3.400885e-02 8.796712e-02 4.384400e-02
-3.028085e-02 9.169512e-02 1.316000e-02
-9.845385e-02 2.352212e-02 -1.370300e-02
-1.072348e-01 1.474112e-02 -1.366000e-02
-9.692585e-02 2.505012e-02 -8.416000e-03
-3.899385e-02 8.298212e-02 3.777400e-02
-7.836285e-02 4.361312e-02 3.550700e-02
-7.268085e-02 4.929512e-02 4.493800e-02
-6.561285e-02 5.636312e-02 4.764200e-02
-4.713985e-02 7.483612e-02 4.291100e-02
-4.795285e-02 7.402312e-02 3.842300e-02
-3.898585e-02 8.299012e-02 3.727600e-02
-3.898385e-02 8.299212e-02 3.670400e-02
-1.698985e-02 1.049861e-01 -1.670600e-02
-8.511885e-02 3.685712e-02 1.122300e-02
-8.971685e-02 3.225912e-02 -4.187000e-03
-3.899885e-02 8.297712e-02 3.600400e-02
-1.102048e-01 1.177112e-02 -1.492100e-02
-4.552585e-02 7.645012e-02 3.656300e-02
-9.393885e-02 2.803712e-02 -2.805000e-03
-9.098385e-02 3.099212e-02 2.724000e-03
-9.095485e-02 3.102112e-02 3.256000e-03
-4.988785e-02 7.208812e-02 3.116300e-02
-7.404785e-02 4.792812e-02 3.582300e-02
-6.419485e-02 5.778112e-02 5.042000e-02
-3.708385e-02 8.489212e-02 2.516700e-02
-5.684885e-02 6.512712e-02 2.583500e-02
-3.223985e-02 8.973612e-02 3.125700e-02
-6.687385e-02 5.510212e-02 3.262400e-02
-3.897185e-02 8.300412e-02 3.530200e-02
-3.897285e-02 8.300312e-02 3.456600e-02
-1.146608e-01 7.315120e-03 -1.491600e-02
-8.515585e-02 3.682012e-02 3.313000e-03
-9.255985e-02 2.941612e-02 -5.030000e-04
-3.895185e-02 8.302412e-02 3.379500e-02
-5.018385e-02 7.179212e-02 5.044600e-02
-3.544485e-02 8.653112e-02 -5.844000e-03
-1.101958e-01 1.178012e-02 -1.965500e-02
-3.894085e-02 8.303512e-02 3.294700e-02
-3.892985e-02 8.304612e-02 3.209800e-02
2.651150e-03 1.246271e-01 5.452900e-02
2.644150e-03 1.246201e-01 5.396500e-02
2.650150e-03 1.246261e-01 5.347200e-02
2.604150e-03 1.245801e-01 5.326900e-02
2.571150e-03 1.245471e-01 5.298000e-02
2.559150e-03 1.245351e-01 5.251700e-02
2.565150e-03 1.245411e-01 5.187100e-02
2.573150e-03 1.245491e-01 5.121800e-02
2.565150e-03 1.245411e-01 5.063600e-02
2.566150e-03 1.245421e-01 5.009900e-02
2.575150e-03 1.245511e-01 4.958500e-02
2.556150e-03 1.245321e-01 4.909400e-02
2.581150e-03 1.245571e-01 4.839700e-02
2.560150e-03 1.245361e-01 4.776900e-02
2.575150e-03 1.245511e-01 4.704900e-02
2.575150e-03 1.245511e-01 4.634400e-02
2.569150e-03 1.245451e-01 4.576100e-02
2.568150e-03 1.245441e-01 4.520500e-02
2.554150e-03 1.245301e-01 4.472400e-02
2.537150e-03 1.245131e-01 4.431400e-02
2.519150e-03 1.244951e-01 4.388300e-02
2.502150e-03 1.244781e-01 4.343200e-02
2.491150e-03 1.244671e-01 4.294200e-02
2.487150e-03 1.244631e-01 4.238100e-02
2.484150e-03 1.244601e-01 4.178900e-02
2.487150e-03 1.244631e-01 4.117500e-02
2.304150e-03 1.242801e-01 4.066800e-02
2.463150e-03 1.244391e-01 4.017800e-02
2.451150e-03 1.244271e-01 3.972200e-02
2.442150e-03 1.244181e-01 3.922100e-02
2.440150e-03 1.244161e-01 3.863500e-02
2.453150e-03 1.244291e-01 3.790000e-02
2.467150e-03 1.244431e-01 3.713700e-02
2.492150e-03 1.244681e-01 3.629800e-02
2.516150e-03 1.244921e-01 3.545600e-02
2.538150e-03 1.245141e-01 3.460600e-02
2.575150e-03 1.245511e-01 3.368300e-02
2.592150e-03 1.245681e-01 3.279700e-02
2.657150e-03 1.246331e-01 3.158300e-02
2.741150e-03 1.247171e-01 3.033500e-02
2.786150e-03 1.247621e-01 2.935900e-02
2.835150e-03 1.248111e-01 2.840300e-02
2.857150e-03 1.248331e-01 2.763500e-02
-3.893585e-02 8.304012e-02 3.127300e-02
-4.578985e-02 7.618612e-02 4.899000e-02
-3.574785e-02 8.622812e-02 2.016200e-02
-5.572685e-02 6.624912e-02 2.227600e-02
-7.351985e-02 4.845612e-02 1.817200e-02
-4.249485e-02 7.948112e-02 4.067500e-02
-9.842185e-02 2.355412e-02 -1.098300e-02
-3.890285e-02 8.307312e-02 3.057000e-02
-3.890685e-02 8.306912e-02 2.973900e-02
2.311150e-03 1.242871e-01 2.684900e-02
2.308150e-03 1.242841e-01 2.636500e-02
2.285150e-03 1.242611e-01 2.583000e-02
2.287150e-03 1.242631e-01 2.510100e-02
2.302150e-03 1.242781e-01 2.435100e-02
2.316150e-03 1.242921e-01 2.352200e-02
2.351150e-03 1.243271e-01 2.265800e-02
2.386150e-03 1.243621e-01 2.172000e-02
2.418150e-03 1.243941e-01 2.070300e-02
-9.404585e-02 2.793012e-02 -7.030000e-03
-9.403885e-02 2.793712e-02 -7.324000e-03
-2.447185e-02 9.750412e-02 1.343800e-02
-8.967585e-02 3.230012e-02 5.090000e-04
-8.368985e-02 3.828612e-02 5.240000e-03
-3.103085e-02 9.094512e-02 4.458200e-02
-2.686085e-02 9.511512e-02 4.932500e-02
-1.057478e-01 1.622812e-02 -1.176700e-02
-5.414485e-02 6.783112e-02 -5.639000e-03
-4.252085e-02 7.945512e-02 4.021000e-02
-1.072328e-01 1.474312e-02 -9.989000e-03
-9.690285e-02 2.507312e-02 -7.139000e-03
-3.888985e-02 8.308612e-02 2.888100e-02
-7.835585e-02 4.362012e-02 3.735500e-02
-2.971085e-02 9.226512e-02 4.252300e-02
-6.561085e-02 5.636512e-02 4.962200e-02
-4.707085e-02 7.490512e-02 4.172400e-02
-5.422385e-02 6.775212e-02 4.379100e-02
-4.386385e-02 7.811212e-02 4.051900e-02
-4.387985e-02 7.809612e-02 4.015500e-02
-2.709785e-02 9.487812e-02 4.416000e-02
-7.689985e-02 4.507612e-02 3.884900e-02
-3.888985e-02 8.308612e-02 2.804100e-02
-3.886485e-02 8.311112e-02 2.717200e-02
-1.102048e-01 1.177112e-02 -1.559900e-02
-3.026285e-02 9.171312e-02 1.415700e-02
-9.396785e-02 2.800812e-02 -3.143000e-03
-3.883985e-02 8.313612e-02 2.621500e-02
-5.130385e-02 7.067212e-02 3.267300e-02
-7.409785e-02 4.787812e-02 4.498600e-02
-7.403985e-02 4.793612e-02 3.704800e-02
-6.416685e-02 5.780912e-02 5.092300e-02
-2.335585e-02 9.862012e-02 1.016100e-02
-5.687185e-02 6.510412e-02 2.683500e-02
-2.334285e-02 9.863312e-02 1.316000e-02
-1.911485e-02 1.028611e-01 1.916600e-02
-9.031685e-02 3.165912e-02 -9.426000e-03
-5.222585e-02 6.975012e-02 3.262000e-02
-5.219685e-02 6.977912e-02 3.297500e-02
-9.265985e-02 2.931612e-02 -8.178000e-03
-8.225585e-02 3.972012e-02 1.351500e-02
-2.445985e-02 9.751612e-02 4.485200e-02
-5.018385e-02 7.179212e-02 5.124200e-02
-2.584085e-02 9.613512e-02 -5.777000e-03
-4.852285e-02 7.345312e-02 3.836100e-02
-4.874985e-02 7.322612e-02 5.139400e-02
-5.144185e-02 7.053412e-02 4.464100e-02
-5.279185e-02 6.918412e-02 3.721900e-02
1.286150e-03 1.232621e-01 5.416500e-02
1.270150e-03 1.232461e-01 5.386200e-02
1.235150e-03 1.232111e-01 5.354000e-02
1.210150e-03 1.231861e-01 5.315200e-02
1.215150e-03 1.231911e-01 5.265200e-02
1.207150e-03 1.231831e-01 5.204100e-02
1.213150e-03 1.231891e-01 5.140300e-02
1.197150e-03 1.231731e-01 5.091400e-02
1.203150e-03 1.231791e-01 5.040200e-02
1.183150e-03 1.231591e-01 4.989700e-02
1.205150e-03 1.231811e-01 4.929800e-02
1.195150e-03 1.231711e-01 4.871400e-02
1.178150e-03 1.231541e-01 4.810800e-02
1.193150e-03 1.231691e-01 4.735800e-02
1.216150e-03 1.231921e-01 4.652300e-02
1.230150e-03 1.232061e-01 4.579300e-02
1.232150e-03 1.232081e-01 4.514600e-02
1.220150e-03 1.231961e-01 4.460700e-02
1.204150e-03 1.231801e-01 4.416400e-02
1.185150e-03 1.231611e-01 4.375900e-02
1.172150e-03 1.231481e-01 4.330400e-02
1.163150e-03 1.231391e-01 4.275600e-02
1.154150e-03 1.231301e-01 4.226400e-02
1.140150e-03 1.231161e-01 4.179500e-02
1.135150e-03 1.231111e-01 4.125500e-02
1.124150e-03 1.231001e-01 4.073400e-02
1.125150e-03 1.231011e-01 4.014700e-02
1.115150e-03 1.230911e-01 3.962800e-02
1.109150e-03 1.230851e-01 3.908700e-02
1.106150e-03 1.230821e-01 3.852900e-02
1.112150e-03 1.230881e-01 3.787000e-02
1.125150e-03 1.231011e-01 3.711600e-02
1.144150e-03 1.231201e-01 3.629500e-02
1.162150e-03 1.231381e-01 3.551600e-02
1.184150e-03 1.231601e-01 3.468500e-02
1.208150e-03 1.231841e-01 3.383100e-02
1.239150e-03 1.232151e-01 3.288300e-02
1.297150e-03 1.232731e-01 3.166800e-02
1.366150e-03 1.233421e-01 3.050000e-02
1.424150e-03 1.234001e-01 2.944700e-02
1.471150e-03 1.234471e-01 2.848000e-02
1.505150e-03 1.234811e-01 2.763900e-02
-2.567285e-02 9.630312e-02 3.413100e-02
-2.569185e-02 9.628412e-02 3.505000e-02
-5.414885e-02 6.782712e-02 3.689000e-02
-9.935685e-02 2.261912e-02 -4.159400e-02
-8.223685e-02 3.973912e-02 1.180400e-02
-3.235785e-02 8.961812e-02 4.029900e-02
-2.578785e-02 9.618812e-02 4.456500e-02
-9.839085e-02 2.358512e-02 -1.294100e-02
-4.400385e-02 7.797212e-02 4.124200e-02
-5.338385e-02 6.859212e-02 3.423300e-02
1.019150e-03 1.229951e-01 2.580100e-02
9.971502e-04 1.229731e-01 2.526700e-02
1.015150e-03 1.229911e-01 2.467100e-02
1.019150e-03 1.229951e-01 2.393800e-02
1.027150e-03 1.230031e-01 2.311400e-02
1.047150e-03 1.230231e-01 2.227300e-02
1.075150e-03 1.230511e-01 2.134200e-02
1.113150e-03 1.230891e-01 2.040000e-02
-9.992585e-02 2.205012e-02 -1.764700e-02
-4.193385e-02 8.004212e-02 1.836200e-02
-2.578185e-02 9.619412e-02 4.519400e-02
-2.578885e-02 9.618712e-02 4.578800e-02
-1.889285e-02 1.030831e-01 -6.806000e-03
-3.102885e-02 9.094712e-02 4.400800e-02
-3.494085e-02 8.703512e-02 4.281700e-02
-1.713585e-02 1.048401e-01 -1.475600e-02
-4.958785e-02 7.238812e-02 3.301900e-02
-5.155185e-02 7.042412e-02 4.891800e-02
-1.072388e-01 1.473712e-02 -1.079400e-02
-9.690985e-02 2.506612e-02 -7.601000e-03
-2.975585e-02 9.222012e-02 3.991600e-02
-7.836885e-02 4.360712e-02 3.691500e-02
-2.708185e-02 9.489412e-02 3.802900e-02
-6.562085e-02 5.635512e-02 4.907100e-02
-1.730185e-02 1.046741e-01 -1.177000e-02
-5.147585e-02 7.050012e-02 2.326000e-03
-4.693685e-02 7.503912e-02 3.166000e-02
-4.390785e-02 7.806812e-02 3.975100e-02
-3.621485e-02 8.576112e-02 4.304700e-02
-4.689085e-02 7.508512e-02 3.274400e-02
-8.964585e-02 3.233012e-02 1.921000e-03
-6.704485e-02 5.493112e-02 4.925700e-02
-3.623985e-02 8.573612e-02 4.259900e-02
-7.408985e-02 4.788612e-02 4.250600e-02
-9.404385e-02 2.793212e-02 -5.518000e-03
-6.408885e-02 5.788712e-02 3.591100e-02
-1.042478e-01 1.772812e-02 -8.345000e-03
-6.123385e-02 6.074212e-02 4.107900e-02
-6.421185e-02 5.776412e-02 4.932100e-02
-6.417685e-02 5.779912e-02 5.135200e-02
-5.561385e-02 6.636212e-02 3.513000e-02
-8.683485e-02 3.514112e-02 -2.758600e-02
-5.690085e-02 6.507512e-02 2.800900e-02
-3.228085e-02 8.969512e-02 3.297600e-02
-6.986985e-02 5.210612e-02 4.792000e-02
-7.253985e-02 4.943612e-02 2.999900e-02
-5.215785e-02 6.981812e-02 3.322600e-02
-5.566185e-02 6.631412e-02 4.020600e-02
-2.558085e-02 9.639512e-02 5.050400e-02
-5.014685e-02 7.182912e-02 5.274600e-02
-5.017685e-02 7.179912e-02 5.235400e-02
-5.017385e-02 7.180212e-02 5.183300e-02
-9.121285e-02 3.076312e-02 -7.044000e-03
-4.839885e-02 7.357712e-02 3.862700e-02
-4.876285e-02 7.321312e-02 5.070800e-02
-4.454185e-02 7.743412e-02 2.319000e-03
-8.370185e-02 3.827412e-02 8.200000e-05
-8.784975e-05 1.218881e-01 5.440900e-02
-1.078498e-04 1.218681e-01 5.406000e-02
-1.178498e-04 1.218581e-01 5.362000e-02
-1.298498e-04 1.218461e-01 5.314900e-02
-1.818498e-04 1.217941e-01 5.261700e-02
-1.428498e-04 1.218331e-01 5.215600e-02
-1.558498e-04 1.218201e-01 5.168500e-02
-1.688498e-04 1.218071e-01 5.121600e-02
-1.848498e-04 1.217911e-01 5.072800e-02
-1.828498e-04 1.217931e-01 5.016000e-02
-1.798498e-04 1.217961e-01 4.950800e-02
-1.758498e-04 1.218001e-01 4.897100e-02
-2.008498e-04 1.217751e-01 4.846900e-02
-1.488498e-04 1.218271e-01 4.767200e-02
-1.558498e-04 1.218201e-01 4.689900e-02
-1.258498e-04 1.218501e-01 4.609000e-02
-1.188498e-04 1.218571e-01 4.532500e-02
-1.368498e-04 1.218391e-01 4.467900e-02
-1.228498e-04 1.218531e-01 4.409700e-02
-1.458498e-04 1.218301e-01 4.360500e-02
-1.558498e-04 1.218201e-01 4.312300e-02
-1.598498e-04 1.218161e-01 4.254600e-02
-1.738498e-04 1.218021e-01 4.207800e-02
-1.898498e-04 1.217861e-01 4.170000e-02
-2.108498e-04 1.217651e-01 4.128000e-02
-2.218498e-04 1.217541e-01 4.078300e-02
-2.248498e-04 1.217511e-01 4.021300e-02
-2.278498e-04 1.217481e-01 3.960800e-02
-2.238498e-04 1.217521e-01 3.896400e-02
-2.278498e-04 1.217481e-01 3.839500e-02
-2.238498e-04 1.217521e-01 3.774600e-02
-2.118498e-04 1.217641e-01 3.702200e-02
-1.968498e-04 1.217791e-01 3.625600e-02
-1.808498e-04 1.217951e-01 3.549100e-02
-1.588498e-04 1.218171e-01 3.467000e-02
-1.368498e-04 1.218391e-01 3.382000e-02
-9.284975e-05 1.218831e-01 3.279400e-02
-5.584975e-05 1.219201e-01 3.174400e-02
-2.849751e-06 1.219731e-01 3.068700e-02
5.315025e-05 1.220291e-01 2.963600e-02
1.141502e-04 1.220901e-01 2.859300e-02
1.441502e-04 1.221201e-01 2.772100e-02
1.811502e-04 1.221571e-01 2.680100e-02
-9.367785e-02 2.829812e-02 -8.799000e-03
-2.703985e-02 9.493612e-02 -8.901000e-03
-6.663685e-02 5.533912e-02 1.621100e-02
-4.340485e-02 7.857112e-02 1.833600e-02
-4.252985e-02 7.944612e-02 -2.835000e-03
-7.974085e-02 4.223512e-02 3.240400e-02
-9.832585e-02 2.365012e-02 -5.769000e-03
-3.740185e-02 8.457412e-02 -2.023400e-02
-9.391185e-02 2.806412e-02 3.715000e-03
-9.838685e-02 2.358912e-02 -1.139000e-02
-2.348498e-04 1.217411e-01 2.463400e-02
-2.408498e-04 1.217351e-01 2.407500e-02
-2.328498e-04 1.217431e-01 2.341700e-02
-2.368498e-04 1.217391e-01 2.260400e-02
-2.218498e-04 1.217541e-01 2.177000e-02
-2.188498e-04 1.217571e-01 2.086000e-02
-1.728498e-04 1.218031e-01 1.991600e-02
-3.105585e-02 9.092012e-02 3.949500e-02
-3.107285e-02 9.090312e-02 4.017300e-02
-3.105985e-02 9.091612e-02 4.079700e-02
-3.101285e-02 9.096312e-02 4.267500e-02
-3.104185e-02 9.093412e-02 4.337500e-02
-9.980485e-02 2.217112e-02 -4.398000e-03
-6.126885e-02 6.070712e-02 4.188600e-02
-9.845985e-02 2.351612e-02 -1.557300e-02
-4.993585e-02 7.204012e-02 3.804800e-02
-2.056085e-02 1.014151e-01 1.016400e-02
-4.842585e-02 7.355012e-02 3.297000e-02
-2.709485e-02 9.488112e-02 4.644200e-02
-1.072428e-01 1.473312e-02 -4.746000e-03
-1.072348e-01 1.474112e-02 -7.346000e-03
-9.689985e-02 2.507612e-02 -7.988000e-03
-8.990985e-02 3.206612e-02 -4.060100e-02
-7.836885e-02 4.360712e-02 3.633400e-02
-6.825385e-02 5.372212e-02 3.622400e-02
-6.561785e-02 5.635812e-02 4.840700e-02
-1.764785e-02 1.043281e-01 -1.802000e-03
-2.316985e-02 9.880612e-02 -3.261100e-02
-4.389885e-02 7.807712e-02 3.762100e-02
-3.623485e-02 8.574112e-02 4.211700e-02
-4.524885e-02 7.672712e-02 3.947900e-02
-7.687285e-02 4.510312e-02 3.252900e-02
-8.963385e-02 3.234212e-02 2.390000e-03
-9.537885e-02 2.659712e-02 1.502000e-03
-1.102038e-01 1.177212e-02 -7.452000e-03
-1.102068e-01 1.176912e-02 -1.628700e-02
-9.404185e-02 2.793412e-02 -5.779000e-03
-1.087068e-01 1.326912e-02 -2.210300e-02
-8.520285e-02 3.677312e-02 3.370000e-04
-4.115585e-02 8.082012e-02 3.814700e-02
-6.420785e-02 5.776812e-02 4.988500e-02
-6.123685e-02 6.073912e-02 3.102900e-02
-6.122585e-02 6.075012e-02 3.015700e-02
-5.693085e-02 6.504512e-02 2.907200e-02
6.392150e-03 1.283681e-01 2.420000e-02
-6.985185e-02 5.212412e-02 4.835600e-02
-3.622085e-02 8.575512e-02 4.153100e-02
-5.216785e-02 6.980812e-02 3.343000e-02
-3.990185e-02 8.207412e-02 3.160000e-03
-7.120185e-02 5.077412e-02 4.098500e-02
-1.863685e-02 1.033391e-01 -1.279300e-02
-9.986985e-02 2.210612e-02 -1.434200e-02
-1.027748e-01 1.920112e-02 -6.139000e-03
-4.931985e-02 7.265612e-02 3.694000e-02
-4.838285e-02 7.359312e-02 3.897800e-02
-4.872685e-02 7.324912e-02 4.987600e-02
-4.541385e-02 7.656212e-02 3.944300e-02
-1.725085e-02 1.047251e-01 -1.277300e-02
-1.413850e-03 1.205621e-01 5.491900e-02
-1.435850e-03 1.205401e-01 5.453400e-02
-1.445850e-03 1.205301e-01 5.409200e-02
-1.460850e-03 1.205151e-01 5.361700e-02
-1.485850e-03 1.204901e-01 5.319300e-02
-1.486850e-03 1.204891e-01 5.281100e-02
-1.513850e-03 1.204621e-01 5.242300e-02
-1.529850e-03 1.204461e-01 5.194100e-02
-1.527850e-03 1.204481e-01 5.140300e-02
-1.528850e-03 1.204471e-01 5.084000e-02
-1.530850e-03 1.204451e-01 5.026600e-02
-1.555850e-03 1.204201e-01 4.976200e-02
-1.549850e-03 1.204261e-01 4.935200e-02
-1.581850e-03 1.203941e-01 4.882700e-02
-1.568850e-03 1.204071e-01 4.819300e-02
-1.556850e-03 1.204191e-01 4.743200e-02
-1.506850e-03 1.204691e-01 4.654100e-02
-1.485850e-03 1.204901e-01 4.570800e-02
-1.488850e-03 1.204871e-01 4.491400e-02
-1.474850e-03 1.205011e-01 4.417500e-02
-1.484850e-03 1.204911e-01 4.361900e-02
-1.486850e-03 1.204891e-01 4.304200e-02
-1.493850e-03 1.204821e-01 4.243600e-02
-1.493850e-03 1.204821e-01 4.190200e-02
-1.520850e-03 1.204551e-01 4.151000e-02
-1.551850e-03 1.204241e-01 4.118600e-02
-1.574850e-03 1.204011e-01 4.086200e-02
-1.577850e-03 1.203981e-01 4.032300e-02
-1.581850e-03 1.203941e-01 3.972300e-02
-1.566850e-03 1.204091e-01 3.899500e-02
-1.561850e-03 1.204141e-01 3.830800e-02
-1.557850e-03 1.204181e-01 3.763700e-02
-1.545850e-03 1.204301e-01 3.691400e-02
-1.529850e-03 1.204461e-01 3.615900e-02
-1.516850e-03 1.204591e-01 3.540800e-02
-1.500850e-03 1.204751e-01 3.464200e-02
-1.478850e-03 1.204971e-01 3.379700e-02
-1.446850e-03 1.205291e-01 3.286700e-02
-1.407850e-03 1.205681e-01 3.183600e-02
-1.358850e-03 1.206171e-01 3.079300e-02
-1.297850e-03 1.206781e-01 2.975600e-02
-1.255850e-03 1.207201e-01 2.879200e-02
-1.211850e-03 1.207641e-01 2.783400e-02
-1.171850e-03 1.208041e-01 2.686500e-02
-1.139850e-03 1.208361e-01 2.598400e-02
-6.965985e-02 5.231612e-02 3.463700e-02
-5.546385e-02 6.651212e-02 2.803200e-02
-8.116385e-02 4.081212e-02 3.063900e-02
-2.449985e-02 9.747612e-02 1.943300e-02
-3.923085e-02 8.274512e-02 2.035500e-02
-1.043148e-01 1.766112e-02 -1.931100e-02
-3.495185e-02 8.702412e-02 4.038300e-02
-9.993385e-02 2.204212e-02 -1.649300e-02
-4.817685e-02 7.379912e-02 3.561600e-02
-7.926285e-02 4.271312e-02 7.935000e-03
-4.622685e-02 7.574912e-02 1.432500e-02
-1.608185e-02 1.058941e-01 -6.797000e-03
-1.561385e-02 1.063621e-01 -1.778600e-02
-5.138985e-02 7.058612e-02 -7.200000e-04
-2.200485e-02 9.997112e-02 -2.759300e-02
-6.928185e-02 5.269412e-02 4.196000e-03
-5.277785e-02 6.919812e-02 4.082600e-02
-1.042758e-01 1.770012e-02 -1.721400e-02
-9.844885e-02 2.352712e-02 -1.501100e-02
-5.563685e-02 6.633912e-02 3.674000e-02
-6.399985e-02 5.797612e-02 2.819000e-02
-3.265085e-02 8.932512e-02 4.405400e-02
-1.042848e-01 1.769112e-02 -1.615900e-02
-9.252585e-02 2.945012e-02 -1.494000e-03
-4.821785e-02 7.375812e-02 3.300300e-02
-1.100618e-01 1.191412e-02 -1.498800e-02
-9.815885e-02 2.381712e-02 -4.599800e-02
-1.160648e-01 5.911120e-03 -1.313100e-02
-1.161298e-01 5.846120e-03 -1.745400e-02
-7.779585e-02 4.418012e-02 1.641800e-02
-9.702485e-02 2.495112e-02 -1.424300e-02
-1.072428e-01 1.473312e-02 -5.592000e-03
-9.696185e-02 2.501412e-02 -1.149300e-02
-5.159285e-02 7.038312e-02 5.201800e-02
-8.073685e-02 4.123912e-02 4.986000e-03
-2.698185e-02 9.499412e-02 3.372300e-02
-6.558285e-02 5.639312e-02 4.606300e-02
-3.621985e-02 8.575612e-02 4.086000e-02
-1.773285e-02 1.042431e-01 1.816800e-02
-7.690985e-02 4.506612e-02 3.779500e-02
-4.391085e-02 7.806512e-02 3.715600e-02
-3.578785e-02 8.618812e-02 1.016100e-02
-9.398685e-02 2.798912e-02 -4.112000e-03
-8.962085e-02 3.235512e-02 2.820000e-03
-9.536885e-02 2.660712e-02 5.700000e-04
-5.091985e-02 7.105612e-02 3.297800e-02
-1.102028e-01 1.177312e-02 -1.697400e-02
-9.409185e-02 2.788412e-02 -8.317000e-03
-1.087178e-01 1.325812e-02 -1.123400e-02
-7.688685e-02 4.508912e-02 4.310200e-02
-6.126985e-02 6.070612e-02 3.344500e-02
-6.410285e-02 5.787312e-02 4.247800e-02
-6.124785e-02 6.072812e-02 3.189700e-02
-5.695385e-02 6.502212e-02 3.006700e-02
-5.702385e-02 6.495212e-02 3.187600e-02
-2.333985e-02 9.863612e-02 1.416100e-02
-8.122385e-02 4.075212e-02 3.588900e-02
-1.102018e-01 1.177412e-02 -1.830200e-02
-5.212685e-02 6.984912e-02 3.465900e-02
-1.146608e-01 7.315120e-03 -1.668300e-02
-4.391585e-02 7.806012e-02 3.826300e-02
-1.011808e-01 2.079512e-02 -2.274900e-02
-4.270585e-02 7.927012e-02 3.167000e-03
-7.546285e-02 4.651312e-02 3.508000e-02
-4.840685e-02 7.356912e-02 4.041500e-02
-4.841385e-02 7.356212e-02 3.961600e-02
-4.869385e-02 7.328212e-02 4.900400e-02
-4.561385e-02 7.636212e-02 4.176700e-02
-6.825385e-02 5.372212e-02 3.422500e-02
-9.257185e-02 2.940412e-02 -2.182000e-03
-2.774850e-03 1.192011e-01 5.507700e-02
-2.788850e-03 1.191871e-01 5.460500e-02
-2.732850e-03 1.192431e-01 5.407700e-02
-2.814850e-03 1.191611e-01 5.369700e-02
-2.827850e-03 1.191481e-01 5.335900e-02
-2.859850e-03 1.191161e-01 5.307100e-02
-2.858850e-03 1.191171e-01 5.253900e-02
-2.873850e-03 1.191021e-01 5.194000e-02
-2.864850e-03 1.191111e-01 5.133300e-02
-2.867850e-03 1.191081e-01 5.084300e-02
-2.890850e-03 1.190851e-01 5.045400e-02
-2.895850e-03 1.190801e-01 5.013800e-02
-2.927850e-03 1.190481e-01 4.972300e-02
-2.961850e-03 1.190141e-01 4.918200e-02
-2.951850e-03 1.190241e-01 4.854300e-02
-2.929850e-03 1.190461e-01 4.781400e-02
-2.918850e-03 1.190571e-01 4.705200e-02
-2.875850e-03 1.191001e-01 4.613800e-02
-2.864850e-03 1.191111e-01 4.526800e-02
-2.863850e-03 1.191121e-01 4.448400e-02
-2.861850e-03 1.191141e-01 4.381800e-02
-2.857850e-03 1.191181e-01 4.328000e-02
-2.840850e-03 1.191351e-01 4.267700e-02
-2.857850e-03 1.191181e-01 4.206800e-02
-2.861850e-03 1.191141e-01 4.150900e-02
-2.888850e-03 1.190871e-01 4.108700e-02
-2.909850e-03 1.190661e-01 4.072200e-02
-2.928850e-03 1.190471e-01 4.037100e-02
-2.932850e-03 1.190431e-01 3.982500e-02
-2.938850e-03 1.190371e-01 3.921300e-02
-2.925850e-03 1.190501e-01 3.848800e-02
-2.908850e-03 1.190671e-01 3.774400e-02
-2.885850e-03 1.190901e-01 3.693300e-02
-2.873850e-03 1.191021e-01 3.613800e-02
-2.861850e-03 1.191141e-01 3.538600e-02
-2.844850e-03 1.191311e-01 3.463300e-02
-2.824850e-03 1.191511e-01 3.378900e-02
-2.802850e-03 1.191731e-01 3.292500e-02
-2.759850e-03 1.192161e-01 3.192400e-02
-2.727850e-03 1.192481e-01 3.097200e-02
-2.681850e-03 1.192941e-01 3.001700e-02
-2.623850e-03 1.193521e-01 2.899000e-02
-2.585850e-03 1.193901e-01 2.800900e-02
-2.529850e-03 1.194461e-01 2.695900e-02
-2.478850e-03 1.194971e-01 2.591500e-02
-1.116868e-01 1.028912e-02 -1.852000e-02
-3.626285e-02 8.571312e-02 3.999100e-02
-6.128285e-02 6.069312e-02 3.621400e-02
-9.242285e-02 2.955312e-02 3.362000e-03
-3.624385e-02 8.573212e-02 3.947700e-02
-3.498885e-02 8.698712e-02 3.749200e-02
-3.496385e-02 8.701212e-02 3.819900e-02
-2.426685e-02 9.770912e-02 4.992400e-02
-9.992785e-02 2.204812e-02 -1.842000e-02
-3.363585e-02 8.834012e-02 4.293200e-02
-2.612885e-02 9.584712e-02 1.216200e-02
-2.613585e-02 9.584012e-02 9.163000e-03
-2.013085e-02 1.018451e-01 -1.078900e-02
-1.025058e-01 1.947012e-02 -4.859200e-02
-2.593985e-02 9.603612e-02 -2.802000e-03
-2.602485e-02 9.595112e-02 1.980000e-04
-4.701885e-02 7.495712e-02 4.064800e-02
-7.253485e-02 4.944112e-02 2.930100e-02
-1.012878e-01 2.068812e-02 -7.915000e-03
-3.259485e-02 8.938112e-02 4.417600e-02
-3.263385e-02 8.934212e-02 4.448900e-02
-6.124685e-02 6.072912e-02 4.043300e-02
-3.628785e-02 8.568812e-02 3.914300e-02
-6.065185e-02 6.132412e-02 1.288800e-02
-2.601385e-02 9.596212e-02 2.516400e-02
-6.404385e-02 5.793212e-02 3.888100e-02
-6.128485e-02 6.069112e-02 3.688200e-02
-9.279785e-02 2.917812e-02 -1.152100e-02
-9.702785e-02 2.494812e-02 -1.701500e-02
-9.702985e-02 2.494612e-02 -1.587800e-02
-9.703585e-02 2.494012e-02 -1.499100e-02
-9.698685e-02 2.498912e-02 -1.294000e-02
-9.696785e-02 2.500812e-02 -1.185000e-02
-8.696885e-02 3.500712e-02 -5.062000e-03
-4.713285e-02 7.484312e-02 3.344700e-02
-5.981285e-02 6.216312e-02 3.057400e-02
-6.555885e-02 5.641712e-02 4.516000e-02
-9.237785e-02 2.959812e-02 -1.091700e-02
-7.885985e-02 4.311612e-02 1.650000e-04
-3.573185e-02 8.624412e-02 2.186000e-03
-6.134685e-02 6.062912e-02 4.636800e-02
-4.759285e-02 7.438312e-02 1.731300e-02
-4.288285e-02 7.909312e-02 3.707600e-02
-2.571685e-02 9.625912e-02 3.590600e-02
-8.950285e-02 3.247312e-02 5.358000e-03
-9.543885e-02 2.653712e-02 -5.006000e-03
-9.151585e-02 3.046012e-02 -3.859800e-02
-1.102018e-01 1.177412e-02 -1.763800e-02
-9.410485e-02 2.787112e-02 -8.965000e-03
-1.475850e-03 1.205001e-01 4.000500e-02
-2.970385e-02 9.227212e-02 4.316400e-02
-2.447885e-02 9.749712e-02 4.081400e-02
-5.841685e-02 6.355912e-02 2.891300e-02
-6.125185e-02 6.072412e-02 3.274900e-02
-5.701285e-02 6.496312e-02 3.102700e-02
-2.532485e-02 9.665112e-02 -6.569000e-03
-5.303285e-02 6.894312e-02 2.528700e-02
-9.537285e-02 2.660312e-02 -2.278000e-03
-5.211185e-02 6.986412e-02 3.423800e-02
-1.028258e-01 1.915012e-02 -1.766400e-02
-4.562485e-02 7.635112e-02 3.180100e-02
-4.410185e-02 7.787412e-02 4.252400e-02
-5.422585e-02 6.775012e-02 4.063000e-02
-2.717285e-02 9.480312e-02 1.442200e-02
-9.557185e-02 2.640412e-02 -1.158900e-02
-4.869185e-02 7.328412e-02 4.710200e-02
-4.869285e-02 7.328312e-02 4.810500e-02
-5.580185e-02 6.617412e-02 5.265800e-02
-2.710985e-02 9.486612e-02 4.253900e-02
-6.682385e-02 5.515212e-02 2.962100e-02
-4.112850e-03 1.178631e-01 5.564200e-02
-4.123850e-03 1.178521e-01 5.519200e-02
-4.128850e-03 1.178471e-01 5.462300e-02
-4.141850e-03 1.178341e-01 5.416000e-02
-4.167850e-03 1.178081e-01 5.388400e-02
-4.218850e-03 1.177571e-01 5.364900e-02
-4.214850e-03 1.177611e-01 5.312600e-02
-4.226850e-03 1.177491e-01 5.253100e-02
-4.203850e-03 1.177721e-01 5.187400e-02
-4.200850e-03 1.177751e-01 5.142500e-02
-4.250850e-03 1.177251e-01 5.118500e-02
-4.271850e-03 1.177041e-01 5.093900e-02
-4.303850e-03 1.176721e-01 5.052900e-02
-4.321850e-03 1.176541e-01 5.004000e-02
-4.311850e-03 1.176641e-01 4.940000e-02
-4.308850e-03 1.176671e-01 4.873000e-02
-4.305850e-03 1.176701e-01 4.806900e-02
-4.286850e-03 1.176891e-01 4.733200e-02
-4.287850e-03 1.176881e-01 4.653900e-02
-4.254850e-03 1.177211e-01 4.560200e-02
-4.242850e-03 1.177331e-01 4.473500e-02
-4.233850e-03 1.177421e-01 4.414400e-02
-4.259850e-03 1.177161e-01 4.368800e-02
-4.229850e-03 1.177461e-01 4.322500e-02
-4.270850e-03 1.177051e-01 4.268200e-02
-4.247850e-03 1.177281e-01 4.195500e-02
-4.257850e-03 1.177181e-01 4.137600e-02
-4.256850e-03 1.177191e-01 4.083100e-02
-4.272850e-03 1.177031e-01 4.035600e-02
-4.285850e-03 1.176901e-01 3.988600e-02
-4.302850e-03 1.176731e-01 3.938900e-02
-4.295850e-03 1.176801e-01 3.873300e-02
-4.280850e-03 1.176951e-01 3.800300e-02
-4.257850e-03 1.177181e-01 3.716600e-02
-4.216850e-03 1.177591e-01 3.615100e-02
-4.204850e-03 1.177711e-01 3.537000e-02
-4.189850e-03 1.177861e-01 3.461900e-02
-4.168850e-03 1.178071e-01 3.378800e-02
-4.145850e-03 1.178301e-01 3.293500e-02
-4.124850e-03 1.178511e-01 3.208000e-02
-4.080850e-03 1.178951e-01 3.107100e-02
-4.037850e-03 1.179381e-01 3.012000e-02
-3.995850e-03 1.179801e-01 2.916100e-02
-3.942850e-03 1.180331e-01 2.810800e-02
-3.900850e-03 1.180751e-01 2.712300e-02
-3.836850e-03 1.181391e-01 2.598700e-02
-3.770850e-03 1.182051e-01 2.484900e-02
-3.724850e-03 1.182511e-01 2.378300e-02
-6.659885e-02 5.537712e-02 1.321700e-02
-1.065788e-01 1.539712e-02 -4.999600e-02
-5.200585e-02 6.997012e-02 3.594700e-02
-3.278685e-02 8.918912e-02 4.438000e-02
6.683150e-03 1.286591e-01 2.009800e-02
-3.164585e-02 9.033012e-02 5.170000e-03
-1.752285e-02 1.044531e-01 -5.796000e-03
-7.063685e-02 5.133912e-02 4.205000e-03
-5.274085e-02 6.923512e-02 3.290900e-02
-3.914985e-02 8.282612e-02 5.346000e-03
-8.514985e-02 3.682612e-02 -3.662100e-02
-4.062685e-02 8.134912e-02 -1.949600e-02
-4.082985e-02 8.114612e-02 -1.971700e-02
-3.491785e-02 8.705812e-02 3.113500e-02
-5.139585e-02 7.058012e-02 4.346600e-02
-9.452685e-02 2.744912e-02 -5.665400e-02
-3.084185e-02 9.113412e-02 2.779800e-02
-3.919485e-02 8.278112e-02 2.434400e-02
-2.194285e-02 1.000331e-01 1.516100e-02
-1.058048e-01 1.617112e-02 -2.260000e-02
-8.518585e-02 3.679012e-02 2.144000e-03
-9.782850e-03 1.121931e-01 2.563100e-02
-2.607685e-02 9.589912e-02 2.216900e-02
-8.019385e-02 4.178212e-02 -2.883000e-03
-8.073985e-02 4.123612e-02 4.198000e-03
-5.964585e-02 6.233012e-02 2.427100e-02
-8.665085e-02 3.532512e-02 1.550000e-03
-8.665385e-02 3.532212e-02 9.850000e-04
-8.669185e-02 3.528412e-02 4.880000e-04
-8.676385e-02 3.521212e-02 -1.909000e-03
-8.368785e-02 3.828812e-02 1.056600e-02
-4.797285e-02 7.400312e-02 3.745800e-02
-1.742185e-02 1.045541e-01 -8.801000e-03
-6.554985e-02 5.642612e-02 4.420600e-02
-2.041285e-02 1.015631e-01 -2.807000e-03
-7.780585e-02 4.417012e-02 1.541100e-02
-7.542185e-02 4.655412e-02 3.300900e-02
-3.577485e-02 8.620112e-02 3.170000e-03
-4.289685e-02 7.907912e-02 3.670700e-02
-1.013058e-01 2.067012e-02 -1.186400e-02
-9.259585e-02 2.938012e-02 -2.526000e-03
-2.840585e-02 9.357012e-02 4.440000e-02
-8.949085e-02 3.248512e-02 6.097000e-03
-9.540385e-02 2.657212e-02 -5.306000e-03
-1.057488e-01 1.622712e-02 -1.302900e-02
-1.102068e-01 1.176912e-02 -8.293000e-03
-1.025008e-01 1.947512e-02 -5.059600e-02
-8.989885e-02 3.207712e-02 -6.746000e-03
-3.628785e-02 8.568812e-02 3.873900e-02
-8.368285e-02 3.829312e-02 8.809000e-03
-6.408485e-02 5.789112e-02 4.159800e-02
-6.127785e-02 6.069812e-02 3.810700e-02
-2.465885e-02 9.731712e-02 1.202000e-03
-3.387785e-02 8.809812e-02 1.138800e-02
-5.704385e-02 6.493212e-02 3.650500e-02
-9.544385e-02 2.653212e-02 -7.282000e-03
-5.215685e-02 6.981912e-02 3.380800e-02
-4.559085e-02 7.638512e-02 3.026300e-02
-4.562485e-02 7.635112e-02 3.104700e-02
-9.129485e-02 3.068112e-02 -2.839000e-03
-2.056385e-02 1.014121e-01 9.168000e-03
-4.993785e-02 7.203812e-02 -7.930000e-04
-1.912685e-02 1.028491e-01 1.616500e-02
-3.227985e-02 8.969612e-02 3.205400e-02
-2.321885e-02 9.875712e-02 -1.804000e-03
-7.549685e-02 4.647912e-02 3.676600e-02
-4.152885e-02 8.044712e-02 2.692100e-02
-4.995985e-02 7.201612e-02 -1.162100e-02
-5.461850e-03 1.165141e-01 5.578700e-02
-5.473850e-03 1.165021e-01 5.528400e-02
-5.479850e-03 1.164961e-01 5.476900e-02
-5.498850e-03 1.164771e-01 5.438500e-02
-5.550850e-03 1.164251e-01 5.423100e-02
-5.569850e-03 1.164061e-01 5.387300e-02
-5.572850e-03 1.164031e-01 5.331000e-02
-5.562850e-03 1.164131e-01 5.266200e-02
-5.575850e-03 1.164001e-01 5.220900e-02
-5.590850e-03 1.163851e-01 5.197600e-02
-5.639850e-03 1.163361e-01 5.174800e-02
-5.668850e-03 1.163071e-01 5.135800e-02
-5.666850e-03 1.163091e-01 5.082900e-02
-5.681850e-03 1.162941e-01 5.022100e-02
-5.657850e-03 1.163181e-01 4.950900e-02
-5.673850e-03 1.163021e-01 4.889400e-02
-5.664850e-03 1.163111e-01 4.825500e-02
-5.656850e-03 1.163191e-01 4.759400e-02
-5.649850e-03 1.163261e-01 4.682400e-02
-5.589850e-03 1.163861e-01 4.583900e-02
-5.618850e-03 1.163571e-01 4.498400e-02
-5.641850e-03 1.163341e-01 4.452300e-02
-5.629850e-03 1.163461e-01 4.408200e-02
-5.656850e-03 1.163191e-01 4.369500e-02
-5.635850e-03 1.163401e-01 4.319800e-02
-5.646850e-03 1.163291e-01 4.249400e-02
-5.633850e-03 1.163421e-01 4.187000e-02
-5.630850e-03 1.163451e-01 4.121200e-02
-5.610850e-03 1.163651e-01 4.049600e-02
-5.640850e-03 1.163351e-01 3.994900e-02
-5.638850e-03 1.163371e-01 3.942500e-02
-5.644850e-03 1.163311e-01 3.884200e-02
-5.640850e-03 1.163351e-01 3.817900e-02
-5.617850e-03 1.163581e-01 3.734100e-02
-5.586850e-03 1.163891e-01 3.639900e-02
-5.553850e-03 1.164221e-01 3.548400e-02
-5.531850e-03 1.164441e-01 3.464400e-02
-5.521850e-03 1.164541e-01 3.384300e-02
-5.500850e-03 1.164751e-01 3.299200e-02
-5.466850e-03 1.165091e-01 3.208500e-02
-5.447850e-03 1.165281e-01 3.120200e-02
-5.395850e-03 1.165801e-01 3.019100e-02
-5.355850e-03 1.166201e-01 2.923900e-02
-5.300850e-03 1.166751e-01 2.820000e-02
-5.263850e-03 1.167121e-01 2.721700e-02
-5.195850e-03 1.167801e-01 2.607200e-02
-5.128850e-03 1.168471e-01 2.493100e-02
-5.065850e-03 1.169101e-01 2.377000e-02
-5.006850e-03 1.169691e-01 2.261500e-02
-6.943785e-02 5.253812e-02 2.719200e-02
-3.717085e-02 8.480512e-02 6.167000e-03
-3.705585e-02 8.492012e-02 2.616500e-02
-3.009385e-02 9.188212e-02 2.716600e-02
-6.260285e-02 5.937312e-02 2.882700e-02
-6.265585e-02 5.932012e-02 3.070600e-02
-4.107885e-02 8.089712e-02 -3.904000e-03
-6.265885e-02 5.931712e-02 3.298600e-02
-6.267385e-02 5.930212e-02 3.367500e-02
-7.898185e-02 4.299412e-02 -1.460500e-02
-3.436285e-02 8.761312e-02 2.217100e-02
-3.432685e-02 8.764912e-02 2.416400e-02
-4.291385e-02 7.906212e-02 3.634200e-02
-9.986385e-02 2.211212e-02 -1.471100e-02
-7.932585e-02 4.265012e-02 2.141100e-02
-1.057528e-01 1.622312e-02 -1.811600e-02
-1.057648e-01 1.621112e-02 -1.978600e-02
-1.028038e-01 1.917212e-02 -1.375300e-02
-7.161385e-02 5.036212e-02 2.440200e-02
-2.863585e-02 9.334012e-02 -5.830000e-03
-3.631385e-02 8.566212e-02 3.821900e-02
-8.661985e-02 3.535612e-02 3.180000e-03
-8.664585e-02 3.533012e-02 2.680000e-03
-8.664785e-02 3.532812e-02 2.118000e-03
-7.783985e-02 4.413612e-02 1.058500e-02
-7.784785e-02 4.412812e-02 1.159500e-02
-2.841485e-02 9.356112e-02 3.896800e-02
-9.982585e-02 2.215012e-02 -1.040600e-02
-4.985185e-02 7.212412e-02 3.169400e-02
-4.697485e-02 7.500112e-02 3.437600e-02
-6.552485e-02 5.645112e-02 4.321700e-02
-5.441785e-02 6.755812e-02 3.527700e-02
-2.202485e-02 9.995112e-02 -2.659500e-02
-5.158685e-02 7.038912e-02 1.029600e-02
-7.547785e-02 4.649812e-02 3.605800e-02
-4.296185e-02 7.901412e-02 3.583000e-02
-6.407585e-02 5.790012e-02 3.456700e-02
-7.253785e-02 4.943812e-02 3.145900e-02
-2.839685e-02 9.357912e-02 4.300500e-02
-1.072438e-01 1.473212e-02 -1.612600e-02
-9.544585e-02 2.653012e-02 -5.730000e-03
-1.086958e-01 1.328012e-02 -2.441400e-02
-1.102088e-01 1.176712e-02 -9.085000e-03
-5.707385e-02 6.490212e-02 1.825800e-02
-8.972185e-02 3.225412e-02 -5.796000e-03
-7.691085e-02 4.506512e-02 4.030000e-02
-2.439385e-02 9.758212e-02 3.627600e-02
-6.405385e-02 5.792212e-02 4.079300e-02
-6.128285e-02 6.069312e-02 3.859000e-02
-2.466285e-02 9.731312e-02 1.770000e-04
-6.668085e-02 5.529512e-02 2.620900e-02
-6.686485e-02 5.511112e-02 3.394200e-02
-6.262585e-02 5.935012e-02 3.939100e-02
-5.223085e-02 6.974512e-02 3.215300e-02
-9.982185e-02 2.215412e-02 -8.322000e-03
-2.709285e-02 9.488312e-02 4.350100e-02
-4.419085e-02 7.778512e-02 4.469500e-02
-7.692685e-02 4.504912e-02 3.625100e-02
-6.264885e-02 5.932712e-02 3.989600e-02
-5.292085e-02 6.905512e-02 -1.235600e-02
-9.095485e-02 3.102112e-02 6.249000e-03
-1.774285e-02 1.042331e-01 5.184000e-03
-8.261185e-02 3.936412e-02 3.168100e-02
-1.868485e-02 1.032911e-01 -1.178900e-02
-8.672485e-02 3.525112e-02 -3.861600e-02
-6.264885e-02 5.932712e-02 4.056500e-02
-6.815850e-03 1.151601e-01 5.582700e-02
-6.820850e-03 1.151551e-01 5.529900e-02
-6.832850e-03 1.151431e-01 5.481700e-02
-6.871850e-03 1.151041e-01 5.459700e-02
-6.906850e-03 1.150691e-01 5.444900e-02
-6.942850e-03 1.150331e-01 5.409300e-02
-6.946850e-03 1.150291e-01 5.355700e-02
-6.949850e-03 1.150261e-01 5.313400e-02
-6.987850e-03 1.149881e-01 5.281600e-02
-7.006850e-03 1.149691e-01 5.245400e-02
-7.035850e-03 1.149401e-01 5.204000e-02
-7.034850e-03 1.149411e-01 5.150700e-02
-7.026850e-03 1.149491e-01 5.089200e-02
-7.035850e-03 1.149401e-01 5.029400e-02
-7.027850e-03 1.149481e-01 4.965200e-02
-7.032850e-03 1.149431e-01 4.907400e-02
-7.034850e-03 1.149411e-01 4.852100e-02
-7.017850e-03 1.149581e-01 4.790300e-02
-7.016850e-03 1.149591e-01 4.722200e-02
-6.977850e-03 1.149981e-01 4.628800e-02
-6.988850e-03 1.149871e-01 4.548200e-02
-7.008850e-03 1.149671e-01 4.500500e-02
-6.997850e-03 1.149781e-01 4.447700e-02
-7.015850e-03 1.149601e-01 4.398900e-02
-7.030850e-03 1.149451e-01 4.351300e-02
-7.030850e-03 1.149451e-01 4.296200e-02
-7.020850e-03 1.149551e-01 4.232500e-02
-7.020850e-03 1.149551e-01 4.165400e-02
-7.012850e-03 1.149631e-01 4.087700e-02
-6.985850e-03 1.149901e-01 4.006800e-02
-6.991850e-03 1.149841e-01 3.949400e-02
-6.996850e-03 1.149791e-01 3.892700e-02
-6.991850e-03 1.149841e-01 3.824900e-02
-6.969850e-03 1.150061e-01 3.743600e-02
-6.945850e-03 1.150301e-01 3.658100e-02
-6.916850e-03 1.150591e-01 3.564700e-02
-6.896850e-03 1.150791e-01 3.477800e-02
-6.864850e-03 1.151111e-01 3.385300e-02
-6.843850e-03 1.151321e-01 3.300400e-02
-6.821850e-03 1.151541e-01 3.215200e-02
-6.790850e-03 1.151851e-01 3.121000e-02
-6.740850e-03 1.152351e-01 3.018000e-02
-6.700850e-03 1.152751e-01 2.922400e-02
-6.659850e-03 1.153161e-01 2.826200e-02
-6.619850e-03 1.153561e-01 2.730600e-02
-6.554850e-03 1.154211e-01 2.617400e-02
-6.489850e-03 1.154861e-01 2.501300e-02
-6.427850e-03 1.155481e-01 2.385100e-02
-6.364850e-03 1.156111e-01 2.269300e-02
-6.300850e-03 1.156751e-01 2.153900e-02
-6.233850e-03 1.157421e-01 2.028500e-02
-7.162585e-02 5.035012e-02 2.240200e-02
-2.879485e-02 9.318112e-02 -8.310000e-04
-2.885985e-02 9.311612e-02 3.176000e-03
-4.068985e-02 8.128612e-02 -2.161700e-02
-1.080108e-01 1.396512e-02 -5.505300e-02
-3.386885e-02 8.810712e-02 2.236700e-02
-6.416085e-02 5.781512e-02 4.542400e-02
-3.413785e-02 8.783812e-02 4.407600e-02
-9.981285e-02 2.216312e-02 -7.193000e-03
-3.490285e-02 8.707312e-02 4.469000e-02
-4.292885e-02 7.904712e-02 3.540300e-02
-4.295985e-02 7.901612e-02 3.487200e-02
-1.057478e-01 1.622812e-02 -1.242800e-02
-1.057658e-01 1.621012e-02 -1.541900e-02
-8.221985e-02 3.975612e-02 2.033000e-03
-9.248785e-02 2.948812e-02 1.720000e-04
-8.664485e-02 3.533112e-02 6.545000e-03
-8.665285e-02 3.532312e-02 6.099000e-03
-8.664285e-02 3.533312e-02 4.394000e-03
-8.662285e-02 3.535312e-02 3.747000e-03
-7.780785e-02 4.416812e-02 8.055000e-03
-7.781085e-02 4.416512e-02 8.836000e-03
-7.780985e-02 4.416612e-02 9.624000e-03
-7.111485e-02 5.086112e-02 3.189300e-02
-7.111385e-02 5.086212e-02 3.122200e-02
-7.107085e-02 5.090512e-02 2.782900e-02
-7.106185e-02 5.091412e-02 2.666200e-02
-2.707585e-02 9.490012e-02 3.721100e-02
-6.549985e-02 5.647612e-02 4.222100e-02
-6.274785e-02 5.922812e-02 4.584000e-02
-2.773285e-02 9.424312e-02 -1.153000e-02
-6.274985e-02 5.922612e-02 4.669700e-02
-9.113485e-02 3.084112e-02 -4.293300e-02
-3.439385e-02 8.758212e-02 2.017700e-02
-6.402885e-02 5.794712e-02 2.917800e-02
-6.404485e-02 5.793112e-02 3.015400e-02
-7.254185e-02 4.943412e-02 3.216300e-02
