-4.494000e-03 7.547262e-02 2.923618e-02
-3.489000e-03 7.546170e-02 2.921465e-02
-2.496000e-03 7.544460e-02 2.919853e-02
-1.493000e-03 7.543404e-02 2.917906e-02
-4.970000e-04 7.541678e-02 2.916398e-02
5.070000e-04 7.541491e-02 2.915081e-02
1.509000e-03 7.541418e-02 2.913722e-02
2.507000e-03 7.540278e-02 2.912826e-02
3.504000e-03 7.538771e-02 2.911749e-02
4.504000e-03 7.536815e-02 2.909109e-02
5.501000e-03 7.534158e-02 2.905900e-02
6.504000e-03 7.531287e-02 2.901189e-02
7.513000e-03 7.528510e-02 2.896662e-02
8.505000e-03 7.523489e-02 2.890549e-02
9.509000e-03 7.518295e-02 2.883017e-02
1.050400e-02 9.481725e-02 3.077631e-02
-4.450200e-02 1.293872e-01 3.365123e-02
5.907000e-03 1.049563e-01 2.888578e-02
-4.450800e-02 1.282828e-01 3.347112e-02
-4.353300e-02 1.282446e-01 3.340535e-02
-5.049000e-02 9.418922e-02 2.982776e-02
-8.849900e-02 8.243169e-02 2.410475e-02
-7.217900e-02 1.215141e-01 2.373389e-02
1.849000e-02 7.427460e-02 2.756431e-02
1.947800e-02 7.425315e-02 2.754905e-02
2.049500e-02 7.424384e-02 2.752937e-02
2.147200e-02 7.422408e-02 2.751204e-02
2.246000e-02 7.419010e-02 2.745859e-02
-6.360300e-02 1.245558e-01 3.443650e-02
-7.550400e-02 1.013366e-01 3.509577e-02
-2.052100e-02 9.659152e-02 3.061796e-02
3.794600e-02 8.814117e-02 2.533275e-02
4.135500e-02 7.847091e-02 1.949648e-02
-8.754600e-02 8.838332e-02 2.488804e-02
-5.847300e-02 9.460087e-02 3.050393e-02
3.969100e-02 8.314050e-02 2.121367e-02
-2.851200e-02 1.410497e-01 3.438907e-02
-2.135200e-02 1.007473e-01 2.680838e-02
-9.248200e-02 9.965032e-02 2.682822e-02
4.322100e-02 7.865447e-02 2.347189e-02
3.885800e-02 7.549512e-02 1.766783e-02
4.045800e-02 7.934991e-02 2.507919e-02
-9.464000e-03 1.313076e-01 2.945901e-02
-5.483000e-03 9.998332e-02 3.163485e-02
-1.850800e-02 9.853565e-02 3.074168e-02
-6.185500e-02 1.184971e-01 2.571607e-02
3.990900e-02 8.482583e-02 2.252796e-02
3.996800e-02 7.930650e-02 1.934950e-02
-6.394600e-02 1.198689e-01 2.907979e-02
-8.691700e-02 9.225427e-02 2.352644e-02
-6.659800e-02 1.237500e-01 3.326589e-02
1.733000e-03 1.051664e-01 2.968927e-02
5.976000e-03 1.052463e-01 2.998475e-02
-4.081300e-02 1.003307e-01 2.515729e-02
3.196000e-02 9.366296e-02 2.826729e-02
1.660800e-02 1.030040e-01 2.934901e-02
-7.951000e-03 1.041954e-01 3.062255e-02
9.867000e-03 1.046355e-01 2.906343e-02
-2.183200e-02 1.005592e-01 2.934692e-02
-8.962600e-02 7.791136e-02 2.243438e-02
9.357000e-03 1.046039e-01 2.876710e-02
-6.851600e-02 1.228068e-01 3.054851e-02
-2.979200e-02 8.364476e-02 1.768282e-02
-7.265400e-02 1.244374e-01 3.409235e-02
-5.551900e-02 1.228778e-01 3.609730e-02
-8.276000e-02 8.328642e-02 2.074286e-02
-9.227000e-02 1.021380e-01 3.156526e-02
-7.151400e-02 7.414342e-02 2.616745e-02
-7.050400e-02 7.418538e-02 2.622041e-02
-2.933800e-02 9.692322e-02 2.400808e-02
-3.029300e-02 9.692664e-02 2.394317e-02
-6.749300e-02 7.449412e-02 2.663428e-02
-6.650200e-02 7.458129e-02 2.675068e-02
-6.549000e-02 7.463946e-02 2.682883e-02
-6.450000e-02 7.468364e-02 2.689022e-02
-6.348300e-02 7.473765e-02 2.696017e-02
-6.249500e-02 7.476436e-02 2.699659e-02
-6.149100e-02 7.478396e-02 2.701495e-02
-6.049600e-02 7.476335e-02 2.698650e-02
-5.950800e-02 7.470319e-02 2.691929e-02
-5.848400e-02 7.463842e-02 2.683893e-02
-5.749900e-02 7.464162e-02 2.683849e-02
-5.649900e-02 7.466598e-02 2.687164e-02
-5.549800e-02 7.468391e-02 2.688939e-02
-5.449700e-02 7.468108e-02 2.688653e-02
-5.349600e-02 7.470013e-02 2.691190e-02
-5.249600e-02 7.471760e-02 2.693687e-02
-5.149700e-02 7.473700e-02 2.696429e-02
-5.049800e-02 7.473903e-02 2.696695e-02
-4.949500e-02 7.473245e-02 2.694992e-02
-4.849800e-02 7.470488e-02 2.691721e-02
-4.749700e-02 7.466131e-02 2.685973e-02
-4.650800e-02 7.459343e-02 2.677055e-02
-4.551600e-02 7.450625e-02 2.665415e-02
-4.447100e-02 7.440759e-02 2.651375e-02
-4.347000e-02 7.432834e-02 2.640757e-02
-4.250100e-02 7.428350e-02 2.635299e-02
-4.150100e-02 7.430767e-02 2.638304e-02
-4.048800e-02 7.434163e-02 2.642970e-02
-3.949300e-02 7.440825e-02 2.651910e-02
-3.850700e-02 7.446307e-02 2.659337e-02
-3.749800e-02 7.443454e-02 2.655470e-02
-3.649300e-02 7.440970e-02 2.651249e-02
-3.549100e-02 7.444018e-02 2.652931e-02
-3.449500e-02 7.445760e-02 2.657447e-02
-3.348900e-02 7.454751e-02 2.667869e-02
-3.249600e-02 7.453979e-02 2.669050e-02
-3.148200e-02 7.454238e-02 2.667668e-02
-3.050600e-02 7.452313e-02 2.666038e-02
-2.949400e-02 7.457936e-02 2.674823e-02
-2.848800e-02 7.476324e-02 2.699845e-02
1.909700e-02 1.018249e-01 2.819709e-02
1.823400e-02 1.021098e-01 2.821114e-02
1.736000e-02 1.023726e-01 2.821942e-02
1.648700e-02 1.026380e-01 2.822870e-02
1.565000e-02 1.029545e-01 2.825379e-02
1.385700e-02 1.034112e-01 2.825080e-02
1.297100e-02 1.036555e-01 2.825513e-02
1.993300e-02 1.015039e-01 2.816999e-02
-7.222900e-02 1.294406e-01 2.888015e-02
-1.848400e-02 7.635528e-02 2.922388e-02
-1.749900e-02 7.640674e-02 2.928747e-02
-1.649200e-02 7.645287e-02 2.935811e-02
-1.550200e-02 7.650402e-02 2.942108e-02
-1.449400e-02 7.652976e-02 2.946369e-02
-1.349700e-02 7.655266e-02 2.949397e-02
-1.251000e-02 7.652793e-02 2.946144e-02
-1.149300e-02 7.648426e-02 2.940376e-02
-1.049600e-02 7.653007e-02 2.946431e-02
-9.499000e-03 7.657416e-02 2.952281e-02
-8.497000e-03 7.658922e-02 2.954574e-02
-7.498000e-03 7.659324e-02 2.954962e-02
-6.496000e-03 7.658461e-02 2.953260e-02
-5.494000e-03 7.656598e-02 2.950806e-02
-4.487000e-03 7.654537e-02 2.947014e-02
-3.496000e-03 7.651772e-02 2.944403e-02
-2.488000e-03 7.650585e-02 2.941386e-02
-1.502000e-03 7.648217e-02 2.940234e-02
-4.950000e-04 7.646820e-02 2.937074e-02
5.080000e-04 7.645790e-02 2.935044e-02
1.508000e-03 7.643750e-02 2.932241e-02
2.501000e-03 7.640413e-02 2.928502e-02
3.510000e-03 7.638751e-02 2.924686e-02
4.510000e-03 7.636811e-02 2.921944e-02
5.507000e-03 7.634065e-02 2.918694e-02
6.514000e-03 7.631692e-02 2.914287e-02
7.500000e-03 7.627008e-02 2.909922e-02
8.507000e-03 7.624578e-02 2.905537e-02
9.503000e-03 7.620126e-02 2.899872e-02
1.049800e-02 7.616178e-02 2.894388e-02
1.149000e-02 7.611790e-02 2.888578e-02
1.190000e-03 6.687253e-02 1.078181e-02
-4.650300e-02 1.283164e-01 3.356433e-02
3.784300e-02 8.764924e-02 2.628281e-02
-1.005000e-02 1.292361e-01 2.947881e-02
6.953000e-03 1.051351e-01 3.001976e-02
-7.747400e-02 1.151489e-01 3.767815e-02
1.850000e-02 7.529649e-02 2.771964e-02
1.948300e-02 7.527070e-02 2.769990e-02
2.050100e-02 7.527117e-02 2.771163e-02
2.148700e-02 7.527630e-02 2.771365e-02
2.248100e-02 7.525612e-02 2.767387e-02
-7.042100e-02 1.251188e-01 3.648977e-02
-7.649100e-02 1.151689e-01 3.768786e-02
-1.950300e-02 9.663641e-02 3.071456e-02
-6.951300e-02 1.190020e-01 3.771026e-02
3.596100e-02 8.604802e-02 2.140717e-02
-7.795500e-02 1.263430e-01 2.745370e-02
-1.049100e-02 9.987538e-02 3.141400e-02
-4.649900e-02 9.412013e-02 2.971861e-02
-3.098200e-02 9.949781e-02 2.612204e-02
-7.049800e-02 1.035360e-01 3.562665e-02
-3.495000e-03 1.009116e-01 3.162049e-02
4.334100e-02 7.855586e-02 2.326804e-02
4.389100e-02 7.700308e-02 2.019665e-02
-8.953100e-02 7.918512e-02 2.311184e-02
4.245200e-02 7.802125e-02 2.420428e-02
3.533200e-02 9.066096e-02 2.722516e-02
-7.602600e-02 1.228023e-01 3.744498e-02
2.601400e-02 9.243653e-02 2.238643e-02
-9.213000e-02 9.512763e-02 3.051883e-02
-9.151800e-02 1.126108e-01 3.187247e-02
3.930600e-02 8.545832e-02 2.572673e-02
-6.781200e-02 6.973076e-02 1.457692e-02
-8.114700e-02 1.236407e-01 3.414566e-02
2.231300e-02 1.005859e-01 2.962538e-02
-3.976700e-02 1.003404e-01 2.522786e-02
3.135800e-02 9.433557e-02 2.839661e-02
1.826000e-02 1.023233e-01 2.928609e-02
-6.185800e-02 1.239339e-01 3.726230e-02
2.208100e-02 1.009127e-01 2.892713e-02
-6.274000e-03 1.036748e-01 3.112134e-02
-1.320100e-02 1.018456e-01 2.658439e-02
6.380000e-03 1.048125e-01 2.862550e-02
7.360000e-03 1.047527e-01 2.867385e-02
-6.772700e-02 1.223251e-01 3.048850e-02
-7.485400e-02 1.242783e-01 3.391379e-02
-5.755000e-03 8.408546e-02 2.946523e-02
-8.224800e-02 8.315028e-02 2.053401e-02
-8.665000e-02 8.460334e-02 2.304520e-02
-7.252900e-02 7.521871e-02 2.639830e-02
-7.150500e-02 7.527915e-02 2.647416e-02
-7.050400e-02 7.529991e-02 2.650157e-02
-6.949500e-02 7.535502e-02 2.658181e-02
-6.849200e-02 7.545933e-02 2.671845e-02
-8.726100e-02 1.088955e-01 2.843610e-02
-6.650800e-02 7.565497e-02 2.697969e-02
-6.550100e-02 7.571318e-02 2.705928e-02
-6.449300e-02 7.577176e-02 2.713825e-02
-6.348500e-02 7.582558e-02 2.721459e-02
-6.249500e-02 7.585596e-02 2.725283e-02
-6.149700e-02 7.587656e-02 2.728127e-02
-6.049700e-02 7.585617e-02 2.725324e-02
-5.949800e-02 7.584701e-02 2.723520e-02
-5.849700e-02 7.585269e-02 2.724503e-02
-5.749600e-02 7.585737e-02 2.725426e-02
-5.649800e-02 7.585455e-02 2.725140e-02
-5.549600e-02 7.583905e-02 2.723033e-02
-5.450700e-02 7.580838e-02 2.718880e-02
-5.349700e-02 7.577092e-02 2.713929e-02
-5.249900e-02 7.575675e-02 2.712624e-02
-5.149900e-02 7.575586e-02 2.712584e-02
-5.049700e-02 7.575946e-02 2.711942e-02
-4.949800e-02 7.575586e-02 2.711636e-02
-4.849500e-02 7.573729e-02 2.709058e-02
-4.750800e-02 7.568123e-02 2.702065e-02
-4.647400e-02 7.560890e-02 2.690781e-02
-4.545600e-02 7.553383e-02 2.680716e-02
-4.446100e-02 7.547117e-02 2.672287e-02
-4.348200e-02 7.543775e-02 2.668404e-02
-4.249300e-02 7.543138e-02 2.667689e-02
-4.149600e-02 7.541519e-02 2.665850e-02
-4.050600e-02 7.542871e-02 2.667568e-02
-3.949700e-02 7.550393e-02 2.677798e-02
-3.849200e-02 7.556415e-02 2.685611e-02
-3.748200e-02 7.558338e-02 2.687509e-02
-3.649700e-02 7.558625e-02 2.688887e-02
-3.548700e-02 7.563089e-02 2.693089e-02
-3.449200e-02 7.569303e-02 2.702363e-02
-3.349100e-02 7.573698e-02 2.706833e-02
-3.249300e-02 7.571254e-02 2.703910e-02
-3.149500e-02 7.568907e-02 2.701851e-02
-3.048200e-02 7.566566e-02 2.698454e-02
-2.949200e-02 7.566921e-02 2.699831e-02
-2.844500e-02 7.577105e-02 2.715577e-02
2.076500e-02 1.011762e-01 2.814192e-02
2.159500e-02 1.008432e-01 2.811287e-02
2.242200e-02 1.005035e-01 2.808140e-02
2.322900e-02 1.001389e-01 2.804399e-02
2.401600e-02 9.973370e-02 2.799295e-02
2.481000e-02 9.936195e-02 2.795375e-02
2.558500e-02 9.893778e-02 2.789773e-02
2.707200e-02 9.800842e-02 2.776255e-02
2.632500e-02 9.845640e-02 2.782494e-02
-1.848500e-02 7.736302e-02 2.937296e-02
-1.748400e-02 7.743493e-02 2.947550e-02
-1.648500e-02 7.748838e-02 2.955246e-02
-1.549500e-02 7.753462e-02 2.961115e-02
-1.448400e-02 7.756721e-02 2.965781e-02
-1.349900e-02 7.760183e-02 2.969766e-02
-1.248600e-02 7.759167e-02 2.970332e-02
-1.149200e-02 7.757960e-02 2.967954e-02
-1.049900e-02 7.760115e-02 2.969767e-02
-9.498000e-03 7.762698e-02 2.973101e-02
-8.499000e-03 7.764001e-02 2.975128e-02
-7.496000e-03 7.764911e-02 2.975841e-02
-6.496000e-03 7.765151e-02 2.976044e-02
-5.496000e-03 7.763462e-02 2.974742e-02
-4.491000e-03 7.761328e-02 2.970806e-02
-3.494000e-03 7.758839e-02 2.967657e-02
-2.492000e-03 7.756768e-02 2.964792e-02
-1.496000e-03 7.754838e-02 2.962070e-02
-4.940000e-04 7.752934e-02 2.959534e-02
5.050000e-04 7.750701e-02 2.956485e-02
1.508000e-03 7.748186e-02 2.952203e-02
2.511000e-03 7.744959e-02 2.947330e-02
3.497000e-03 7.741226e-02 2.943080e-02
4.509000e-03 7.738621e-02 2.938758e-02
5.508000e-03 7.735102e-02 2.933579e-02
6.500000e-03 7.729803e-02 2.927325e-02
7.492000e-03 7.724607e-02 2.921275e-02
8.497000e-03 7.721983e-02 2.916644e-02
9.504000e-03 7.719511e-02 2.912176e-02
1.049800e-02 7.716518e-02 2.908847e-02
1.150300e-02 7.713925e-02 2.904277e-02
1.249900e-02 7.708151e-02 2.896276e-02
-4.290000e-04 1.048833e-01 2.896371e-02
-7.049300e-02 9.797590e-02 3.418344e-02
-7.149300e-02 9.798478e-02 3.421446e-02
-7.249900e-02 9.798784e-02 3.421237e-02
-7.350100e-02 9.797479e-02 3.418530e-02
1.849100e-02 7.632225e-02 2.788936e-02
1.949300e-02 7.631702e-02 2.788446e-02
2.048900e-02 7.631482e-02 2.789499e-02
2.149200e-02 7.632487e-02 2.790128e-02
2.248900e-02 7.630970e-02 2.787814e-02
-4.149800e-02 9.419038e-02 2.982734e-02
-2.279000e-03 9.302129e-02 2.113806e-02
-2.353500e-02 9.636606e-02 3.026821e-02
-7.051000e-02 1.190440e-01 3.778773e-02
-6.004100e-02 1.246662e-01 3.547059e-02
-6.657900e-02 1.228032e-01 2.065369e-02
3.600900e-02 8.203931e-02 1.932708e-02
4.208200e-02 8.151732e-02 2.347999e-02
-1.449400e-02 9.967483e-02 3.109307e-02
-6.949100e-02 1.034969e-01 3.555491e-02
-4.492000e-03 1.009335e-01 3.162997e-02
4.352200e-02 7.844282e-02 2.305877e-02
4.426900e-02 7.744005e-02 2.102007e-02
-9.258000e-03 1.365572e-01 2.953587e-02
-1.149800e-02 9.984580e-02 3.134218e-02
-4.849500e-02 1.240396e-01 3.304321e-02
-7.053300e-02 1.180347e-01 3.772869e-02
-1.055100e-02 1.280294e-01 2.916616e-02
-9.098200e-02 9.446500e-02 2.928036e-02
-4.786300e-02 9.834702e-02 2.357262e-02
1.649000e-02 9.358800e-02 3.036232e-02
3.813200e-02 8.790429e-02 2.491452e-02
-3.216800e-02 9.786205e-02 2.959786e-02
2.149200e-02 1.009349e-01 2.965902e-02
-9.727000e-03 1.034100e-01 2.798219e-02
2.941500e-02 9.616841e-02 2.872818e-02
1.740300e-02 1.026217e-01 2.930517e-02
-5.946500e-02 1.227403e-01 3.712277e-02
2.368500e-02 1.001605e-01 2.884366e-02
-7.075100e-02 1.250828e-01 3.515486e-02
-1.444600e-02 1.014863e-01 2.641159e-02
-1.194500e-02 1.021865e-01 2.675345e-02
5.349000e-03 1.048286e-01 2.856253e-02
-6.479300e-02 1.203923e-01 3.020193e-02
-6.701900e-02 1.218014e-01 3.040394e-02
-3.700600e-02 9.861061e-02 3.000395e-02
-5.919300e-02 1.239503e-01 3.378787e-02
-7.984400e-02 9.329228e-02 2.267123e-02
-9.340700e-02 9.404143e-02 2.666776e-02
-7.252800e-02 7.633571e-02 2.668026e-02
-7.152000e-02 7.639685e-02 2.676292e-02
-7.053200e-02 7.641521e-02 2.679777e-02
-6.950000e-02 7.645304e-02 2.683717e-02
-6.852000e-02 7.650470e-02 2.690385e-02
-6.758600e-02 7.650177e-02 2.700893e-02
-6.649400e-02 7.669638e-02 2.716945e-02
-6.549200e-02 7.675810e-02 2.725190e-02
-6.448500e-02 7.681405e-02 2.733110e-02
-6.350200e-02 7.688716e-02 2.742518e-02
-6.250000e-02 7.692853e-02 2.748103e-02
-6.148900e-02 7.695328e-02 2.752035e-02
-6.049700e-02 7.696577e-02 2.753280e-02
-5.949600e-02 7.698492e-02 2.755837e-02
-5.849700e-02 7.698716e-02 2.756144e-02
-5.749800e-02 7.698716e-02 2.756144e-02
-5.649800e-02 7.698424e-02 2.755838e-02
-5.550300e-02 7.696233e-02 2.752871e-02
-5.450400e-02 7.690034e-02 2.744710e-02
-5.350300e-02 7.683215e-02 2.735730e-02
-5.249800e-02 7.678884e-02 2.728951e-02
-5.149800e-02 7.678654e-02 2.728768e-02
-5.049900e-02 7.680257e-02 2.730710e-02
-4.949200e-02 7.679787e-02 2.730055e-02
-4.847400e-02 7.677070e-02 2.726187e-02
-4.747900e-02 7.673470e-02 2.721524e-02
-4.647900e-02 7.667100e-02 2.712890e-02
-4.547300e-02 7.663277e-02 2.707652e-02
-4.448600e-02 7.660611e-02 2.704154e-02
-4.348000e-02 7.661357e-02 2.701840e-02
-4.249400e-02 7.654570e-02 2.696032e-02
-4.149700e-02 7.651517e-02 2.692044e-02
-4.049700e-02 7.653196e-02 2.694541e-02
-3.949900e-02 7.659555e-02 2.703155e-02
-3.847600e-02 7.667084e-02 2.712993e-02
-3.749000e-02 7.671815e-02 2.719479e-02
-3.647600e-02 7.677557e-02 2.726471e-02
-3.549300e-02 7.682151e-02 2.733226e-02
-3.448800e-02 7.686039e-02 2.738052e-02
-3.348900e-02 7.686001e-02 2.737166e-02
-3.249700e-02 7.682113e-02 2.732341e-02
-3.149600e-02 7.680211e-02 2.730484e-02
-3.049700e-02 7.677986e-02 2.727992e-02
-2.949100e-02 7.677982e-02 2.727580e-02
-2.849000e-02 7.682284e-02 2.733761e-02
-2.753100e-02 7.692138e-02 2.746153e-02
3.337800e-02 9.322982e-02 2.698097e-02
3.272500e-02 9.382274e-02 2.708568e-02
3.206600e-02 9.441114e-02 2.718962e-02
3.138300e-02 9.494328e-02 2.727595e-02
3.069200e-02 9.550924e-02 2.737350e-02
2.925900e-02 9.652108e-02 2.753202e-02
2.780500e-02 9.751446e-02 2.768658e-02
2.853500e-02 9.702186e-02 2.761060e-02
2.998000e-02 9.601857e-02 2.745406e-02
-1.747700e-02 7.841573e-02 2.959311e-02
-1.645400e-02 7.850491e-02 2.970805e-02
-1.549500e-02 7.855064e-02 2.976304e-02
-1.449500e-02 7.855192e-02 2.978177e-02
-1.349600e-02 7.860005e-02 2.983880e-02
-1.249500e-02 7.863719e-02 2.989036e-02
-1.150000e-02 7.864855e-02 2.989788e-02
-1.049900e-02 7.864587e-02 2.989667e-02
-9.501000e-03 7.865493e-02 2.990235e-02
-8.494000e-03 7.865847e-02 2.991880e-02
-7.499000e-03 7.867653e-02 2.993140e-02
-6.499000e-03 7.867615e-02 2.994418e-02
-5.496000e-03 7.867334e-02 2.992917e-02
-4.495000e-03 7.865634e-02 2.990378e-02
-3.494000e-03 7.863558e-02 2.987637e-02
-2.494000e-03 7.862607e-02 2.985627e-02
-1.501000e-03 7.859843e-02 2.983696e-02
-4.930000e-04 7.857914e-02 2.979759e-02
5.060000e-04 7.855655e-02 2.976793e-02
1.509000e-03 7.853067e-02 2.972367e-02
2.507000e-03 7.850368e-02 2.969076e-02
3.515000e-03 7.847838e-02 2.964629e-02
4.503000e-03 7.842576e-02 2.958313e-02
5.499000e-03 7.836163e-02 2.949864e-02
6.499000e-03 7.829726e-02 2.940016e-02
7.491000e-03 7.821806e-02 2.930758e-02
8.493000e-03 7.818390e-02 2.925784e-02
9.491000e-03 7.815638e-02 2.922657e-02
1.049300e-02 7.813572e-02 2.919937e-02
1.149700e-02 7.811980e-02 2.915852e-02
1.249800e-02 7.807081e-02 2.908358e-02
6.640000e-04 1.049619e-01 2.905506e-02
3.378900e-02 9.158481e-02 2.786590e-02
-1.806400e-02 9.950207e-02 3.064169e-02
-8.968900e-02 1.118489e-01 3.400722e-02
-6.970600e-02 1.250775e-01 3.522001e-02
1.848400e-02 7.736370e-02 2.808056e-02
1.949600e-02 7.736653e-02 2.808342e-02
2.049800e-02 7.737900e-02 2.811070e-02
2.148400e-02 7.738081e-02 2.811563e-02
2.247700e-02 7.736774e-02 2.809391e-02
1.909000e-02 1.019925e-01 2.925743e-02
-7.551000e-02 1.121357e-01 3.737502e-02
-2.253400e-02 9.645619e-02 3.040395e-02
-6.645300e-02 1.187113e-01 3.731579e-02
-7.321800e-02 1.303723e-01 2.416398e-02
-4.990000e-04 9.415206e-02 3.120372e-02
1.665300e-02 9.861058e-02 3.081638e-02
-7.848100e-02 1.131449e-01 3.747959e-02
-4.939200e-02 1.148614e-01 3.069004e-02
-3.629700e-02 9.906421e-02 2.460768e-02
-7.482000e-03 1.008733e-01 3.154504e-02
4.338300e-02 7.808871e-02 2.047087e-02
4.426500e-02 7.733329e-02 2.081507e-02
-5.351800e-02 1.221873e-01 3.345607e-02
-7.316000e-03 1.038857e-01 2.826000e-02
-7.748700e-02 1.141715e-01 3.759162e-02
-7.350300e-02 1.181276e-01 3.786996e-02
2.247600e-02 1.007659e-01 2.917177e-02
-3.112800e-02 1.316909e-01 3.209361e-02
-3.774400e-02 1.002000e-01 2.532947e-02
-5.430900e-02 1.226875e-01 3.404717e-02
-5.314800e-02 1.274582e-01 3.324495e-02
-6.756600e-02 1.251547e-01 3.537358e-02
2.066200e-02 1.012600e-01 2.968588e-02
-8.524000e-03 1.036557e-01 2.812308e-02
-8.915800e-02 7.534991e-02 2.286081e-02
3.602700e-02 8.927712e-02 2.717700e-02
-8.529000e-02 1.227175e-01 3.525277e-02
2.444800e-02 9.973182e-02 2.878686e-02
8.888000e-03 1.027535e-01 3.134266e-02
3.702500e-02 8.838729e-02 2.676418e-02
-1.068800e-02 1.025151e-01 2.691993e-02
3.573500e-02 9.039633e-02 2.692933e-02
-8.687900e-02 7.330183e-02 1.912679e-02
-9.247400e-02 1.025709e-01 3.239017e-02
-7.018900e-02 1.251917e-01 3.547767e-02
-7.617200e-02 1.216729e-01 3.108882e-02
-1.823200e-02 1.452524e-01 3.341908e-02
-9.165600e-02 9.469340e-02 2.969538e-02
-7.249400e-02 7.736097e-02 2.693012e-02
-7.151100e-02 7.751344e-02 2.704138e-02
-7.051300e-02 7.755233e-02 2.709911e-02
-6.949100e-02 7.758133e-02 2.714004e-02
-6.851500e-02 7.759851e-02 2.715904e-02
-6.749600e-02 7.764732e-02 2.722821e-02
-6.651100e-02 7.771923e-02 2.732128e-02
-6.550200e-02 7.779506e-02 2.742748e-02
-6.448400e-02 7.785906e-02 2.752659e-02
-6.350000e-02 7.793501e-02 2.762085e-02
-6.247300e-02 7.798724e-02 2.770894e-02
-6.148900e-02 7.802035e-02 2.774716e-02
-6.049500e-02 7.804630e-02 2.777802e-02
-5.949900e-02 7.806355e-02 2.779311e-02
-5.849600e-02 7.807590e-02 2.781339e-02
-5.749500e-02 7.807182e-02 2.779859e-02
-5.649900e-02 7.805169e-02 2.778189e-02
-5.549300e-02 7.802197e-02 2.773684e-02
-5.449500e-02 7.796189e-02 2.765356e-02
-5.349600e-02 7.789892e-02 2.756866e-02
-5.249800e-02 7.786434e-02 2.752077e-02
-5.149800e-02 7.787706e-02 2.754043e-02
-5.050000e-02 7.791858e-02 2.759793e-02
-4.949700e-02 7.795195e-02 2.764480e-02
-4.848700e-02 7.790531e-02 2.758261e-02
-4.748500e-02 7.783865e-02 2.749176e-02
-4.648500e-02 7.779708e-02 2.743282e-02
-4.548500e-02 7.777549e-02 2.740377e-02
-4.450100e-02 7.772996e-02 2.733972e-02
-4.349400e-02 7.766944e-02 2.725829e-02
-4.250800e-02 7.760657e-02 2.719790e-02
-4.150000e-02 7.760867e-02 2.717501e-02
-4.050000e-02 7.762880e-02 2.720387e-02
-3.950900e-02 7.769260e-02 2.729042e-02
-3.846700e-02 7.777595e-02 2.740603e-02
-3.748600e-02 7.784674e-02 2.750096e-02
-3.648100e-02 7.790402e-02 2.757870e-02
-3.547800e-02 7.794007e-02 2.762678e-02
-3.447800e-02 7.795850e-02 2.764824e-02
-3.349100e-02 7.794864e-02 2.763556e-02
-3.249300e-02 7.794939e-02 2.763164e-02
-3.149300e-02 7.795223e-02 2.763182e-02
-3.049200e-02 7.793304e-02 2.760480e-02
-2.949300e-02 7.793169e-02 2.761161e-02
-2.849100e-02 7.795176e-02 2.764171e-02
-2.749800e-02 7.799573e-02 2.770269e-02
-2.662800e-02 7.806895e-02 2.779429e-02
-1.415500e-02 1.031976e-01 2.867197e-02
3.402900e-02 9.259130e-02 2.686205e-02
3.465800e-02 9.192875e-02 2.673634e-02
3.526300e-02 9.124471e-02 2.660343e-02
3.646000e-02 8.981539e-02 2.631962e-02
3.763600e-02 8.836797e-02 2.603124e-02
-1.541100e-02 1.028663e-01 2.850715e-02
3.705200e-02 8.906696e-02 2.616793e-02
3.587200e-02 9.051007e-02 2.645594e-02
-1.650000e-02 7.945328e-02 2.975633e-02
-1.548300e-02 7.949145e-02 2.984373e-02
-1.449200e-02 7.950900e-02 2.985263e-02
-1.354200e-02 7.954385e-02 2.987806e-02
-1.250000e-02 7.960463e-02 2.996813e-02
-1.149300e-02 7.962891e-02 3.002950e-02
-1.049600e-02 7.964708e-02 3.003963e-02
-9.496000e-03 7.963964e-02 3.003578e-02
-8.496000e-03 7.964509e-02 3.003841e-02
-7.498000e-03 7.966140e-02 3.006380e-02
-6.498000e-03 7.968115e-02 3.007433e-02
-5.499000e-03 7.967282e-02 3.007008e-02
-4.497000e-03 7.965979e-02 3.006196e-02
-3.498000e-03 7.963902e-02 3.003455e-02
-2.498000e-03 7.963616e-02 3.001810e-02
-1.500000e-03 7.961873e-02 3.000673e-02
-5.020000e-04 7.959278e-02 2.997586e-02
4.980000e-04 7.957987e-02 2.995312e-02
1.502000e-03 7.957303e-02 2.993423e-02
2.500000e-03 7.954004e-02 2.988407e-02
3.514000e-03 7.950669e-02 2.981969e-02
4.501000e-03 7.943372e-02 2.972994e-02
5.497000e-03 7.935244e-02 2.962110e-02
6.500000e-03 7.928425e-02 2.951915e-02
7.481000e-03 7.921625e-02 2.943244e-02
8.481000e-03 7.915502e-02 2.936853e-02
9.492000e-03 7.913721e-02 2.932667e-02
1.048800e-02 7.910812e-02 2.929501e-02
1.148300e-02 7.906481e-02 2.923938e-02
1.248700e-02 7.902304e-02 2.916788e-02
1.347100e-02 7.895352e-02 2.908221e-02
3.844800e-02 8.735208e-02 2.567006e-02
4.066600e-02 8.436669e-02 2.348451e-02
-5.049500e-02 1.230269e-01 3.299120e-02
1.747500e-02 7.852851e-02 2.844324e-02
1.847200e-02 7.845051e-02 2.833005e-02
1.948900e-02 7.844375e-02 2.832620e-02
2.048700e-02 7.844988e-02 2.834097e-02
2.148600e-02 7.845511e-02 2.834587e-02
2.247500e-02 7.841378e-02 2.829146e-02
-7.250100e-02 9.915883e-02 3.459807e-02
-3.249600e-02 9.604185e-02 2.979681e-02
-2.152300e-02 9.651455e-02 3.050682e-02
-7.350900e-02 1.002829e-01 3.490469e-02
-6.181300e-02 1.321222e-01 2.289638e-02
-9.170000e-03 1.301054e-01 2.915909e-02
5.158000e-03 1.034629e-01 3.128232e-02
-7.941700e-02 1.131196e-01 3.743512e-02
-3.046800e-02 1.378194e-01 3.405417e-02
-6.971700e-02 1.227213e-01 3.150326e-02
-6.488000e-03 1.009122e-01 3.158114e-02
4.354900e-02 7.820999e-02 2.067883e-02
4.403600e-02 7.711917e-02 2.040383e-02
-2.458100e-02 1.002687e-01 2.883380e-02
-7.349000e-02 1.024946e-01 3.545996e-02
-7.846400e-02 1.141262e-01 3.756856e-02
-7.251200e-02 1.181030e-01 3.783908e-02
-3.294500e-02 9.826332e-02 2.964523e-02
-5.868000e-02 1.202111e-01 3.654077e-02
-8.146200e-02 1.089330e-01 3.676197e-02
-8.050000e-02 1.057524e-01 3.616540e-02
-7.323600e-02 1.332586e-01 2.416981e-02
-6.854800e-02 1.252132e-01 3.532525e-02
2.308400e-02 1.001602e-01 2.956896e-02
-1.086600e-02 1.032084e-01 2.785655e-02
-3.846000e-02 9.983781e-02 2.492661e-02
3.544300e-02 9.002755e-02 2.732722e-02
-6.918500e-02 1.253335e-01 3.609908e-02
2.287200e-02 1.005208e-01 2.888050e-02
2.125300e-02 1.012493e-01 2.895780e-02
3.647700e-02 8.914485e-02 2.691764e-02
-9.492000e-03 1.027890e-01 2.706777e-02
3.631600e-02 8.964182e-02 2.677647e-02
-6.627200e-02 1.213440e-01 3.033917e-02
-6.555500e-02 1.208317e-01 3.025966e-02
1.060200e-02 1.013950e-01 3.136739e-02
-8.372200e-02 1.228662e-01 3.379235e-02
-9.919000e-03 8.284717e-02 2.996757e-02
1.133300e-02 1.009440e-01 3.131120e-02
-4.588100e-02 8.100694e-02 1.685422e-02
-7.152600e-02 7.861143e-02 2.730210e-02
-7.049200e-02 7.867473e-02 2.739442e-02
-6.948200e-02 7.870879e-02 2.744127e-02
-6.849400e-02 7.871541e-02 2.745027e-02
-6.749200e-02 7.871342e-02 2.744906e-02
-6.651000e-02 7.875186e-02 2.749237e-02
-6.548500e-02 7.881100e-02 2.758596e-02
-6.451500e-02 7.889982e-02 2.768937e-02
-6.350200e-02 7.896732e-02 2.779133e-02
-6.248100e-02 7.902645e-02 2.788760e-02
-6.148500e-02 7.906007e-02 2.793899e-02
-6.048600e-02 7.907298e-02 2.796174e-02
-5.949700e-02 7.910188e-02 2.798084e-02
-5.849600e-02 7.909893e-02 2.799260e-02
-5.749600e-02 7.910836e-02 2.798551e-02
-5.650200e-02 7.909041e-02 2.797311e-02
-5.550600e-02 7.904612e-02 2.791420e-02
-5.450000e-02 7.899592e-02 2.783824e-02
-5.349700e-02 7.895592e-02 2.778237e-02
-5.249700e-02 7.896340e-02 2.778766e-02
-5.149600e-02 7.900085e-02 2.783984e-02
-5.048900e-02 7.907023e-02 2.793334e-02
-4.949700e-02 7.910199e-02 2.797836e-02
-4.850100e-02 7.908328e-02 2.795093e-02
-4.747500e-02 7.898259e-02 2.782683e-02
-4.645200e-02 7.892616e-02 2.773589e-02
-4.549500e-02 7.888458e-02 2.767963e-02
-4.446500e-02 7.881400e-02 2.758511e-02
-4.348500e-02 7.876853e-02 2.751982e-02
-4.248600e-02 7.872124e-02 2.744960e-02
-4.150000e-02 7.868967e-02 2.741034e-02
-4.050400e-02 7.870923e-02 2.743674e-02
-3.949100e-02 7.877645e-02 2.753272e-02
-3.847900e-02 7.884840e-02 2.763670e-02
-3.746200e-02 7.891938e-02 2.773739e-02
-3.647900e-02 7.896685e-02 2.780122e-02
-3.548300e-02 7.901079e-02 2.785808e-02
-3.449600e-02 7.904457e-02 2.789897e-02
-3.349300e-02 7.906031e-02 2.792189e-02
-3.248500e-02 7.907255e-02 2.793249e-02
-3.149400e-02 7.908223e-02 2.794888e-02
-3.049500e-02 7.912277e-02 2.800310e-02
-2.949000e-02 7.915873e-02 2.804829e-02
-2.849600e-02 7.916225e-02 2.805794e-02
-2.748700e-02 7.915534e-02 2.805512e-02
-2.650600e-02 7.911953e-02 2.796831e-02
-2.549900e-02 7.902420e-02 2.793994e-02
-6.653200e-02 1.219383e-01 3.125240e-02
-4.552300e-02 1.050248e-01 2.866391e-02
-3.157900e-02 1.007354e-01 2.849783e-02
-2.977900e-02 1.002857e-01 2.850241e-02
-1.335900e-02 1.031343e-01 3.026962e-02
5.120000e-04 1.036144e-01 3.128216e-02
7.103000e-03 1.024779e-01 3.142142e-02
5.237000e-03 1.028286e-01 3.138934e-02
1.449000e-03 1.034542e-01 3.130424e-02
-1.550100e-02 8.043695e-02 2.985660e-02
-1.448600e-02 8.042860e-02 2.988882e-02
-1.349000e-02 8.042654e-02 2.986988e-02
-1.251800e-02 8.050170e-02 2.992069e-02
-1.149000e-02 8.052258e-02 3.004162e-02
-1.049300e-02 8.058861e-02 3.010280e-02
-9.490000e-03 8.057946e-02 3.011587e-02
-8.498000e-03 8.060893e-02 3.011312e-02
-7.495000e-03 8.061537e-02 3.015014e-02
-6.499000e-03 8.064538e-02 3.016469e-02
-5.497000e-03 8.064103e-02 3.016288e-02
-4.498000e-03 8.062338e-02 3.015377e-02
-3.499000e-03 8.059321e-02 3.013757e-02
-2.498000e-03 8.059953e-02 3.012433e-02
-1.498000e-03 8.059644e-02 3.012230e-02
-5.000000e-04 8.058777e-02 3.010116e-02
4.900000e-04 8.056138e-02 3.008699e-02
1.480000e-03 8.058324e-02 3.005033e-02
2.496000e-03 8.052048e-02 2.999961e-02
3.479000e-03 8.045595e-02 2.993326e-02
4.482000e-03 8.039243e-02 2.983374e-02
5.495000e-03 8.034231e-02 2.974171e-02
6.487000e-03 8.027446e-02 2.965665e-02
7.494000e-03 8.021559e-02 2.955955e-02
8.486000e-03 8.014329e-02 2.947247e-02
9.485000e-03 8.008665e-02 2.939327e-02
1.047700e-02 8.002285e-02 2.932836e-02
1.147000e-02 7.996665e-02 2.926626e-02
1.248100e-02 7.994826e-02 2.920566e-02
1.346000e-02 7.988561e-02 2.914032e-02
-5.771600e-02 1.242594e-01 3.577737e-02
2.478300e-02 9.948555e-02 2.900173e-02
2.577200e-02 9.861516e-02 2.910310e-02
1.746300e-02 7.957932e-02 2.865557e-02
1.848900e-02 7.953745e-02 2.858386e-02
1.949400e-02 7.951821e-02 2.855541e-02
2.048400e-02 7.951843e-02 2.856529e-02
2.148500e-02 7.950764e-02 2.854809e-02
2.247500e-02 7.946229e-02 2.848980e-02
-3.349400e-02 9.608508e-02 2.983740e-02
-4.486000e-03 9.711736e-02 3.150030e-02
-7.449700e-02 1.002654e-01 3.486488e-02
-8.725100e-02 8.505714e-02 2.387342e-02
-6.817400e-02 6.297248e-02 2.275786e-02
-3.246800e-02 1.379315e-01 3.431845e-02
9.497000e-03 9.893880e-02 3.140248e-02
3.831800e-02 8.410015e-02 2.127606e-02
-2.299500e-02 9.903717e-02 2.994706e-02
-5.488000e-03 1.009188e-01 3.162393e-02
4.224100e-02 7.993383e-02 2.415362e-02
3.576200e-02 7.490525e-02 1.680936e-02
-6.734400e-02 1.250260e-01 3.665975e-02
-7.149500e-02 1.024875e-01 3.543510e-02
-7.946300e-02 1.141088e-01 3.750713e-02
-7.153200e-02 1.180548e-01 3.779545e-02
8.974000e-03 1.049478e-01 2.959365e-02
3.634800e-02 8.357536e-02 2.676588e-02
-7.948900e-02 1.090376e-01 3.692209e-02
3.732000e-02 8.253209e-02 2.016318e-02
3.745100e-02 8.650999e-02 2.224066e-02
-4.957000e-03 8.241291e-02 3.017284e-02
2.384500e-02 9.972782e-02 2.951035e-02
-1.213000e-02 1.028991e-01 2.769565e-02
-3.747500e-02 9.972667e-02 2.496575e-02
3.248600e-02 9.362490e-02 2.803817e-02
-2.563400e-02 9.890281e-02 2.947946e-02
-7.717000e-02 1.219565e-01 3.161951e-02
1.955500e-02 1.018541e-01 2.899813e-02
3.590800e-02 8.990577e-02 2.707230e-02
-8.288000e-03 1.030389e-01 2.721007e-02
1.121400e-02 1.042583e-01 2.880120e-02
1.213800e-02 1.040726e-01 2.881507e-02
1.301500e-02 1.038190e-01 2.880856e-02
1.392800e-02 1.036060e-01 2.881589e-02
1.476700e-02 1.033010e-01 2.879337e-02
-3.768500e-02 1.018779e-01 2.865164e-02
-5.253100e-02 1.198905e-01 3.373214e-02
-8.684200e-02 1.063890e-01 2.727834e-02
-7.152600e-02 7.968900e-02 2.752798e-02
-7.050300e-02 7.975478e-02 2.762790e-02
-6.949600e-02 7.978883e-02 2.767744e-02
-6.849600e-02 7.980970e-02 2.770505e-02
-6.748700e-02 7.979997e-02 2.769670e-02
-6.649900e-02 7.981493e-02 2.770995e-02
-6.550100e-02 7.985713e-02 2.776744e-02
-6.448000e-02 7.991658e-02 2.786165e-02
-6.350400e-02 7.998223e-02 2.793561e-02
-6.247600e-02 8.002466e-02 2.802194e-02
-6.149400e-02 8.006667e-02 2.806419e-02
-6.049100e-02 8.008199e-02 2.808897e-02
-5.949500e-02 8.009741e-02 2.811396e-02
-5.849800e-02 8.009312e-02 2.811091e-02
-5.749800e-02 8.007859e-02 2.808633e-02
-5.649800e-02 8.006814e-02 2.806438e-02
-5.549600e-02 8.004754e-02 2.802379e-02
-5.449700e-02 8.002955e-02 2.800994e-02
-5.349600e-02 8.003085e-02 2.801117e-02
-5.248700e-02 8.003467e-02 2.802411e-02
-5.149400e-02 8.009058e-02 2.809239e-02
-5.049500e-02 8.015218e-02 2.817731e-02
-4.949800e-02 8.016834e-02 2.820106e-02
-4.848800e-02 8.017031e-02 2.819548e-02
-4.746600e-02 8.010106e-02 2.809683e-02
-4.644900e-02 8.002555e-02 2.798856e-02
-4.548200e-02 7.996699e-02 2.791639e-02
-4.446800e-02 7.991771e-02 2.784495e-02
-4.348700e-02 7.988263e-02 2.780284e-02
-4.247900e-02 7.982586e-02 2.772880e-02
-4.149700e-02 7.979902e-02 2.768805e-02
-4.049300e-02 7.980584e-02 2.770014e-02
-3.948800e-02 7.984238e-02 2.775460e-02
-3.848300e-02 7.990305e-02 2.783767e-02
-3.748700e-02 7.996454e-02 2.792238e-02
-3.647400e-02 8.000763e-02 2.799243e-02
-3.547100e-02 8.004601e-02 2.804646e-02
-3.448700e-02 8.010397e-02 2.811472e-02
-3.349100e-02 8.015067e-02 2.817568e-02
-3.249400e-02 8.019125e-02 2.823133e-02
-3.149100e-02 8.021809e-02 2.827208e-02
-3.049400e-02 8.024262e-02 2.830419e-02
-2.949600e-02 8.025412e-02 2.831335e-02
-2.850000e-02 8.021898e-02 2.827248e-02
-2.749800e-02 8.014158e-02 2.816587e-02
-2.649800e-02 8.005789e-02 2.804553e-02
-2.548700e-02 8.006465e-02 2.805885e-02
-2.450300e-02 8.014130e-02 2.815722e-02
1.146200e-02 1.018942e-01 3.129417e-02
-1.449100e-02 1.008570e-01 3.093710e-02
-3.037200e-02 1.002417e-01 2.871705e-02
3.890000e-03 8.285005e-02 2.977721e-02
-8.949900e-02 1.094675e-01 3.304998e-02
-2.260000e-04 8.235973e-02 3.019105e-02
6.949000e-03 1.037798e-01 3.122151e-02
-1.645500e-02 8.113579e-02 2.965774e-02
-1.536800e-02 8.125392e-02 2.977839e-02
-1.447300e-02 8.129073e-02 2.986580e-02
-1.346800e-02 8.129714e-02 2.988654e-02
-1.248900e-02 8.134062e-02 2.988573e-02
-1.147900e-02 8.139863e-02 2.996491e-02
-1.047600e-02 8.146227e-02 3.008359e-02
-9.489000e-03 8.150842e-02 3.013940e-02
-8.495000e-03 8.152958e-02 3.014868e-02
-7.492000e-03 8.151907e-02 3.016176e-02
-6.492000e-03 8.154031e-02 3.018875e-02
-5.495000e-03 8.155566e-02 3.019602e-02
-4.495000e-03 8.154220e-02 3.018976e-02
-3.498000e-03 8.155281e-02 3.017689e-02
-2.499000e-03 8.153843e-02 3.018774e-02
-1.500000e-03 8.155802e-02 3.019662e-02
-5.030000e-04 8.154199e-02 3.018935e-02
4.890000e-04 8.151625e-02 3.015890e-02
1.498000e-03 8.148890e-02 3.009282e-02
2.473000e-03 8.141909e-02 3.004444e-02
3.477000e-03 8.138157e-02 2.997455e-02
4.485000e-03 8.134442e-02 2.990403e-02
5.469000e-03 8.127962e-02 2.983850e-02
6.469000e-03 8.121452e-02 2.973858e-02
7.485000e-03 8.115298e-02 2.962132e-02
8.476000e-03 8.105980e-02 2.950663e-02
9.488000e-03 8.099854e-02 2.940749e-02
1.047300e-02 8.094613e-02 2.936369e-02
1.148800e-02 8.093544e-02 2.930611e-02
1.246900e-02 8.088351e-02 2.926189e-02
1.346300e-02 8.083673e-02 2.918590e-02
1.446700e-02 8.078551e-02 2.909306e-02
1.547300e-02 8.072786e-02 2.899430e-02
1.649300e-02 8.069244e-02 2.892583e-02
1.749300e-02 8.065181e-02 2.886874e-02
1.849600e-02 8.061301e-02 2.881389e-02
1.948300e-02 8.058833e-02 2.879228e-02
2.048700e-02 8.057331e-02 2.877079e-02
2.147700e-02 8.054679e-02 2.874014e-02
2.248800e-02 8.050234e-02 2.867010e-02
-3.449500e-02 9.608629e-02 2.985737e-02
-3.491000e-03 9.713590e-02 3.150981e-02
-7.551800e-02 1.002194e-01 3.479857e-02
-3.349700e-02 9.698816e-02 2.984779e-02
-7.448700e-02 1.209561e-01 3.785634e-02
-4.449500e-02 9.778979e-02 2.964199e-02
8.501000e-03 9.896558e-02 3.143499e-02
-8.938100e-02 9.130905e-02 2.694519e-02
3.938000e-03 1.051889e-01 2.932672e-02
2.726500e-02 9.768963e-02 2.896871e-02
-4.142600e-02 9.754934e-02 2.316163e-02
-7.343900e-02 1.138232e-01 2.342276e-02
-4.964000e-03 1.042885e-01 2.851603e-02
-6.637300e-02 6.698677e-02 2.440551e-02
-8.045700e-02 1.140579e-01 3.741099e-02
3.677000e-02 8.630567e-02 2.184334e-02
-4.294000e-03 1.045759e-01 2.888910e-02
4.140200e-02 8.255222e-02 2.177509e-02
-7.848500e-02 1.090517e-01 3.696213e-02
-9.212500e-02 9.502136e-02 3.031341e-02
-2.750900e-02 1.418791e-01 3.427449e-02
-4.583300e-02 7.069571e-02 1.396031e-02
-6.992800e-02 8.846388e-02 2.070729e-02
-6.721500e-02 1.246959e-01 3.450174e-02
2.457200e-02 9.923385e-02 2.943438e-02
-1.835600e-02 1.012925e-01 2.688264e-02
-3.651800e-02 9.961426e-02 2.499563e-02
3.187300e-02 9.428970e-02 2.816426e-02
-4.181100e-02 1.025412e-01 2.775685e-02
2.042000e-02 1.015783e-01 2.898586e-02
-2.030200e-02 1.006150e-01 2.972337e-02
-7.148000e-03 1.032213e-01 2.733177e-02
-5.881000e-03 1.035054e-01 2.748755e-02
-3.056000e-02 9.738561e-02 2.430435e-02
-3.152900e-02 9.749429e-02 2.426441e-02
-9.329600e-02 1.023599e-01 2.840246e-02
-8.840300e-02 8.158875e-02 2.425077e-02
1.565500e-02 1.030610e-01 2.879086e-02
-2.538700e-02 9.987241e-02 2.894500e-02
-6.864400e-02 1.253142e-01 3.586772e-02
-7.151900e-02 8.074042e-02 2.772260e-02
-7.053100e-02 8.081290e-02 2.781545e-02
-6.943500e-02 8.085343e-02 2.788181e-02
-6.850400e-02 8.087214e-02 2.791192e-02
-6.750000e-02 8.088720e-02 2.793485e-02
-6.650600e-02 8.089572e-02 2.794219e-02
-6.551100e-02 8.092046e-02 2.797471e-02
-6.448800e-02 8.095655e-02 2.803638e-02
-6.349900e-02 8.098739e-02 2.807420e-02
-6.250300e-02 8.103504e-02 2.813433e-02
-6.149600e-02 8.106327e-02 2.818185e-02
-6.049500e-02 8.107906e-02 2.820622e-02
-5.949500e-02 8.107849e-02 2.820643e-02
-5.850200e-02 8.109294e-02 2.820383e-02
-5.749700e-02 8.107243e-02 2.818774e-02
-5.649800e-02 8.107739e-02 2.819347e-02
-5.549800e-02 8.108377e-02 2.821009e-02
-5.449800e-02 8.109215e-02 2.821578e-02
-5.349700e-02 8.108346e-02 2.820948e-02
-5.249000e-02 8.109204e-02 2.822773e-02
-5.149400e-02 8.115803e-02 2.831590e-02
-5.049500e-02 8.120682e-02 2.837828e-02
-4.949600e-02 8.121991e-02 2.838784e-02
-4.849700e-02 8.120562e-02 2.837726e-02
-4.750300e-02 8.113924e-02 2.829239e-02
-4.649200e-02 8.107447e-02 2.819040e-02
-4.550200e-02 8.104153e-02 2.815116e-02
-4.448100e-02 8.102530e-02 2.811917e-02
-4.350900e-02 8.097562e-02 2.806587e-02
-4.249500e-02 8.092924e-02 2.799338e-02
-4.150000e-02 8.089814e-02 2.795370e-02
-4.049700e-02 8.089091e-02 2.793811e-02
-3.950600e-02 8.092062e-02 2.797368e-02
-3.851100e-02 8.096539e-02 2.803218e-02
-3.748900e-02 8.099686e-02 2.809286e-02
-3.647500e-02 8.103852e-02 2.816416e-02
-3.546900e-02 8.107450e-02 2.821615e-02
-3.447400e-02 8.113726e-02 2.830065e-02
-3.351900e-02 8.122430e-02 2.839109e-02
-3.248600e-02 8.125022e-02 2.844894e-02
-3.149400e-02 8.127889e-02 2.848246e-02
-3.049600e-02 8.128657e-02 2.850031e-02
-2.950200e-02 8.126455e-02 2.848259e-02
-2.850000e-02 8.120337e-02 2.838634e-02
-2.749600e-02 8.113550e-02 2.828501e-02
-2.649400e-02 8.115998e-02 2.831568e-02
-2.549300e-02 8.122137e-02 2.840019e-02
-2.448200e-02 8.128866e-02 2.848011e-02
-2.348100e-02 8.132464e-02 2.855372e-02
-2.861800e-02 9.972997e-02 2.870345e-02
4.477100e-02 5.811614e-02 1.884756e-02
-2.826300e-02 9.875341e-02 2.900789e-02
4.531300e-02 5.737091e-02 1.868595e-02
-5.465300e-02 1.229117e-01 3.382138e-02
5.118000e-02 5.673738e-02 1.892026e-02
4.610700e-02 5.694840e-02 1.864537e-02
-1.549800e-02 8.198760e-02 2.945622e-02
4.239300e-02 7.022073e-02 1.651737e-02
-9.318200e-02 9.949507e-02 3.179593e-02
-9.446100e-02 9.777802e-02 2.850214e-02
-4.935000e-02 1.124398e-01 3.008068e-02
-6.785100e-02 1.253555e-01 2.183018e-02
-9.483000e-03 8.236134e-02 3.007527e-02
-8.486000e-03 8.239198e-02 3.012484e-02
-7.489000e-03 8.238407e-02 3.012141e-02
-6.492000e-03 8.241568e-02 3.015263e-02
-5.492000e-03 8.241538e-02 3.017097e-02
-6.231600e-02 1.177088e-01 2.426102e-02
-6.231200e-02 1.237824e-01 2.347332e-02
-2.497000e-03 8.241488e-02 3.018889e-02
-1.502000e-03 8.242179e-02 3.019171e-02
-5.110000e-04 8.242326e-02 3.019191e-02
4.740000e-04 8.237692e-02 3.015464e-02
1.458000e-03 8.228831e-02 3.006379e-02
2.471000e-03 8.226482e-02 2.998099e-02
3.465000e-03 8.223209e-02 2.993001e-02
4.465000e-03 8.218714e-02 2.987522e-02
5.450000e-03 8.211684e-02 2.980830e-02
6.480000e-03 8.206162e-02 2.965349e-02
7.485000e-03 8.198831e-02 2.954685e-02
8.489000e-03 8.196880e-02 2.950027e-02
9.489000e-03 8.193762e-02 2.946451e-02
1.049400e-02 8.193104e-02 2.942584e-02
1.148100e-02 8.189254e-02 2.940540e-02
1.247600e-02 8.188214e-02 2.936326e-02
1.348100e-02 8.185142e-02 2.929866e-02
1.447000e-02 8.180619e-02 2.923790e-02
1.546900e-02 8.176813e-02 2.918181e-02
1.647000e-02 8.173788e-02 2.912894e-02
1.748300e-02 8.170116e-02 2.907820e-02
1.848800e-02 8.167894e-02 2.904792e-02
1.948000e-02 8.165216e-02 2.901541e-02
2.047600e-02 8.162862e-02 2.898658e-02
2.146700e-02 8.158661e-02 2.893218e-02
2.246800e-02 8.152981e-02 2.885402e-02
-3.549500e-02 9.609582e-02 2.986264e-02
-2.493000e-03 9.713779e-02 3.151082e-02
-7.660300e-02 1.001981e-01 3.471204e-02
-3.249600e-02 9.693961e-02 2.976831e-02
-7.548200e-02 1.209407e-01 3.780973e-02
-4.338100e-02 9.784779e-02 2.969007e-02
7.497000e-03 9.894402e-02 3.144116e-02
-7.170600e-02 1.213004e-01 2.332223e-02
3.414000e-03 1.052429e-01 2.956167e-02
2.800400e-02 9.720473e-02 2.889574e-02
-6.499400e-02 1.034422e-01 2.464296e-02
-5.250400e-02 1.262201e-01 3.334622e-02
1.304600e-02 1.040482e-01 2.988893e-02
3.708400e-02 8.110052e-02 1.926388e-02
-2.447000e-03 1.040598e-01 2.785423e-02
-7.747500e-02 1.161446e-01 3.775072e-02
-4.245500e-02 1.011299e-01 2.577941e-02
3.695400e-02 8.791887e-02 2.688861e-02
-7.649600e-02 1.090692e-01 3.696011e-02
-7.468300e-02 1.224506e-01 3.086430e-02
-2.645000e-02 1.420290e-01 3.434952e-02
-7.289100e-02 8.853403e-02 2.101048e-02
2.868000e-03 1.047248e-01 3.093858e-02
2.528900e-02 9.872599e-02 2.935400e-02
-1.961500e-02 1.009654e-01 2.671778e-02
1.857100e-02 1.020325e-01 2.948901e-02
3.121200e-02 9.487763e-02 2.826862e-02
-4.644800e-02 1.063391e-01 3.024592e-02
1.872300e-02 1.021862e-01 2.902678e-02
-1.896700e-02 1.010035e-01 2.990105e-02
-6.412100e-02 1.250317e-01 3.634247e-02
-2.437100e-02 9.922744e-02 2.963940e-02
-7.855800e-02 1.213142e-01 3.137147e-02
-4.356000e-02 1.030352e-01 2.776525e-02
-4.590100e-02 1.055696e-01 3.009072e-02
-7.819200e-02 1.241169e-01 3.418657e-02
-7.417100e-02 1.156872e-01 2.352230e-02
1.656700e-02 1.028512e-01 2.879774e-02
-2.429300e-02 9.996809e-02 2.904031e-02
-7.123700e-02 1.293239e-01 2.891378e-02
-7.052200e-02 8.184341e-02 2.798100e-02
-6.949200e-02 8.187062e-02 2.804275e-02
-6.849800e-02 8.192068e-02 2.810491e-02
-6.749000e-02 8.195294e-02 2.815364e-02
-6.651400e-02 8.197553e-02 2.817382e-02
-6.550900e-02 8.201182e-02 2.822643e-02
-6.448500e-02 8.204639e-02 2.828646e-02
-6.350900e-02 8.204784e-02 2.827986e-02
-6.249700e-02 8.207677e-02 2.832470e-02
-6.149700e-02 8.212013e-02 2.838177e-02
-6.048700e-02 8.212059e-02 2.839351e-02
-5.950200e-02 8.213147e-02 2.839197e-02
-5.850000e-02 8.214789e-02 2.841756e-02
-5.749800e-02 8.215893e-02 2.843662e-02
-5.649700e-02 8.219150e-02 2.847649e-02
-5.550200e-02 8.220466e-02 2.850108e-02
-5.447500e-02 8.216729e-02 2.843283e-02
-5.350000e-02 8.212477e-02 2.838688e-02
-5.249300e-02 8.213946e-02 2.842259e-02
-5.148700e-02 8.219509e-02 2.850385e-02
-5.049700e-02 8.224165e-02 2.855100e-02
-4.949600e-02 8.225699e-02 2.856095e-02
-4.849600e-02 8.224610e-02 2.855302e-02
-4.749900e-02 8.218759e-02 2.847014e-02
-4.649400e-02 8.212457e-02 2.838647e-02
-4.549100e-02 8.211317e-02 2.836536e-02
-4.449400e-02 8.210548e-02 2.835966e-02
-4.348400e-02 8.207938e-02 2.831767e-02
-4.250200e-02 8.203050e-02 2.826189e-02
-4.149700e-02 8.198159e-02 2.818983e-02
-4.049800e-02 8.195958e-02 2.815996e-02
-3.950900e-02 8.197768e-02 2.817401e-02
-3.850600e-02 8.200534e-02 2.821907e-02
-3.750300e-02 8.207161e-02 2.830642e-02
-3.649500e-02 8.211735e-02 2.838036e-02
-3.548500e-02 8.212052e-02 2.839742e-02
-3.449000e-02 8.216738e-02 2.845735e-02
-3.348200e-02 8.223582e-02 2.856115e-02
-3.250200e-02 8.229912e-02 2.863184e-02
-3.148800e-02 8.230913e-02 2.866779e-02
-3.049600e-02 8.230617e-02 2.865114e-02
-2.950800e-02 8.226314e-02 2.859200e-02
-2.849100e-02 8.221100e-02 2.852574e-02
-2.750300e-02 8.225697e-02 2.856363e-02
-2.649400e-02 8.231408e-02 2.865456e-02
-2.548300e-02 8.238218e-02 2.875363e-02
-2.448200e-02 8.241779e-02 2.880624e-02
-2.349800e-02 8.243963e-02 2.882767e-02
-2.249300e-02 8.241835e-02 2.880871e-02
-2.149700e-02 8.239121e-02 2.876467e-02
-2.049600e-02 8.238435e-02 2.876062e-02
-4.702500e-02 1.070372e-01 3.038098e-02
-8.445200e-02 1.230682e-01 3.512201e-02
7.877000e-03 1.035868e-01 3.123050e-02
-6.550100e-02 1.238589e-01 3.336293e-02
5.030400e-02 5.701901e-02 1.893867e-02
-4.096600e-02 9.891868e-02 2.982168e-02
-1.346300e-02 8.279188e-02 2.940840e-02
-8.537300e-02 9.078626e-02 2.782632e-02
-8.757700e-02 9.636084e-02 2.421228e-02
-9.344800e-02 9.830184e-02 2.953055e-02
4.416700e-02 7.723085e-02 2.061044e-02
-6.429100e-02 1.270125e-01 2.121746e-02
-8.757800e-02 8.272692e-02 2.471505e-02
-7.818600e-02 1.243463e-01 2.730883e-02
-7.948900e-02 9.219698e-02 3.138559e-02
-7.489600e-02 5.687052e-02 1.874332e-02
-1.065800e-02 1.280722e-01 2.880837e-02
-6.327100e-02 1.229823e-01 2.809867e-02
-6.231600e-02 1.225992e-01 2.746652e-02
-9.212000e-03 1.329829e-01 2.866217e-02
4.486100e-02 7.308976e-02 2.188844e-02
-5.131700e-02 1.165664e-01 3.201877e-02
-8.968500e-02 7.461183e-02 2.142631e-02
3.458000e-03 8.299743e-02 2.977976e-02
4.484000e-03 8.293528e-02 2.965591e-02
5.501000e-03 8.293404e-02 2.957641e-02
6.505000e-03 8.288630e-02 2.953504e-02
7.507000e-03 8.288501e-02 2.953113e-02
8.509000e-03 8.291078e-02 2.955623e-02
9.506000e-03 8.295153e-02 2.957707e-02
1.052200e-02 8.291312e-02 2.958114e-02
1.149300e-02 8.295149e-02 2.957295e-02
1.248600e-02 8.294152e-02 2.955059e-02
1.347500e-02 8.291413e-02 2.951418e-02
1.448900e-02 8.288214e-02 2.945247e-02
1.548700e-02 8.283716e-02 2.939356e-02
1.649700e-02 8.281092e-02 2.934725e-02
1.748200e-02 8.276814e-02 2.930212e-02
1.847300e-02 8.274435e-02 2.926876e-02
1.948500e-02 8.271123e-02 2.922375e-02
2.047700e-02 8.266578e-02 2.916526e-02
2.146400e-02 8.261179e-02 2.910211e-02
-3.649800e-02 9.606300e-02 2.986418e-02
-1.492000e-03 9.715195e-02 3.153603e-02
8.429000e-03 1.047573e-01 2.874508e-02
-8.619500e-02 1.097532e-01 2.829488e-02
-4.980000e-04 9.516014e-02 3.132643e-02
-4.236400e-02 9.786886e-02 2.974240e-02
6.503000e-03 9.896038e-02 3.141526e-02
4.006200e-02 7.453607e-02 1.761203e-02
-1.937700e-02 1.014613e-01 2.737752e-02
4.143300e-02 8.109617e-02 2.462365e-02
-7.176700e-02 1.301901e-01 2.376295e-02
-5.150500e-02 1.262489e-01 3.337995e-02
-3.452200e-02 1.004456e-01 2.613140e-02
-7.251200e-02 1.272967e-01 2.963766e-02
-7.226500e-02 1.242248e-01 3.721655e-02
-7.947800e-02 1.170527e-01 3.762901e-02
4.512300e-02 7.457558e-02 2.101013e-02
-5.637700e-02 5.464640e-02 1.981571e-02
-6.198000e-02 1.182827e-01 2.530442e-02
-7.451500e-02 1.013583e-01 3.513306e-02
3.826400e-02 8.760413e-02 2.430261e-02
-4.981900e-02 7.069334e-02 1.400565e-02
-4.783000e-02 7.069524e-02 1.399183e-02
-4.682900e-02 7.069901e-02 1.398438e-02
1.883000e-03 1.047921e-01 3.089017e-02
2.600600e-02 9.821813e-02 2.927363e-02
-2.080400e-02 1.006743e-01 2.656598e-02
1.939200e-02 1.017664e-01 2.949044e-02
3.054800e-02 9.546446e-02 2.837215e-02
-6.955400e-02 1.272412e-01 2.952962e-02
1.703200e-02 1.028082e-01 2.907252e-02
1.786600e-02 1.024839e-01 2.904566e-02
-5.730000e-04 1.045673e-01 2.836245e-02
-1.716000e-03 1.043957e-01 2.824333e-02
-2.812000e-03 1.042837e-01 2.814281e-02
-3.953000e-03 1.041229e-01 2.802730e-02
-5.219000e-03 1.038392e-01 2.787234e-02
-6.360000e-03 1.036491e-01 2.774906e-02
-1.130500e-02 8.307117e-02 2.966825e-02
-3.519500e-02 9.824739e-02 2.421171e-02
1.744400e-02 1.025914e-01 2.878985e-02
-2.315400e-02 1.001541e-01 2.916219e-02
-7.049800e-02 8.285574e-02 2.813642e-02
-6.948700e-02 8.290457e-02 2.821239e-02
-6.850900e-02 8.296572e-02 2.828289e-02
-6.749200e-02 8.300665e-02 2.835276e-02
-6.652300e-02 8.306100e-02 2.840581e-02
-6.549800e-02 8.311024e-02 2.849476e-02
-6.449800e-02 8.315396e-02 2.855389e-02
-6.350600e-02 8.315740e-02 2.855797e-02
-6.249200e-02 8.316359e-02 2.857151e-02
-6.149500e-02 8.320861e-02 2.863186e-02
-6.049400e-02 8.320741e-02 2.863084e-02
-5.949700e-02 8.323235e-02 2.866378e-02
-5.849900e-02 8.325645e-02 2.869507e-02
-5.749700e-02 8.327475e-02 2.872168e-02
-5.649700e-02 8.329494e-02 2.874930e-02
-5.549400e-02 8.329410e-02 2.873819e-02
-5.449700e-02 8.323972e-02 2.866886e-02
-5.349800e-02 8.318503e-02 2.858944e-02
-5.249900e-02 8.317561e-02 2.858170e-02
-5.150000e-02 8.322865e-02 2.864569e-02
-5.050000e-02 8.326206e-02 2.869667e-02
-4.949600e-02 8.327382e-02 2.871984e-02
-4.849800e-02 8.325253e-02 2.869140e-02
-4.749700e-02 8.319622e-02 2.861014e-02
-4.649400e-02 8.316281e-02 2.855916e-02
-4.548800e-02 8.318106e-02 2.857485e-02
-4.449700e-02 8.317556e-02 2.858294e-02
-4.347900e-02 8.316227e-02 2.855134e-02
-4.249300e-02 8.311997e-02 2.850311e-02
-4.148200e-02 8.305460e-02 2.840402e-02
-4.049700e-02 8.300686e-02 2.835317e-02
-3.950000e-02 8.302601e-02 2.836659e-02
-3.849800e-02 8.304367e-02 2.840680e-02
-3.748500e-02 8.309140e-02 2.848196e-02
-3.648800e-02 8.313224e-02 2.853946e-02
-3.551300e-02 8.315107e-02 2.854279e-02
-3.448600e-02 8.316957e-02 2.859412e-02
-3.347900e-02 8.323513e-02 2.869630e-02
-3.248900e-02 8.329304e-02 2.876312e-02
-3.150500e-02 8.335369e-02 2.881509e-02
-3.050100e-02 8.334615e-02 2.881104e-02
-2.950000e-02 8.331602e-02 2.877733e-02
-2.848900e-02 8.328227e-02 2.875272e-02
-2.749600e-02 8.334535e-02 2.882567e-02
-2.649000e-02 8.342013e-02 2.893251e-02
-2.548500e-02 8.345239e-02 2.898124e-02
-2.448900e-02 8.347331e-02 2.901029e-02
-2.349600e-02 8.348701e-02 2.902108e-02
-2.249600e-02 8.348513e-02 2.902007e-02
-2.149900e-02 8.348559e-02 2.903181e-02
-2.049900e-02 8.347790e-02 2.902611e-02
-1.949800e-02 8.343843e-02 2.894696e-02
-1.849900e-02 8.341145e-02 2.890190e-02
-1.750100e-02 8.341597e-02 2.890268e-02
-1.650700e-02 8.344914e-02 2.893698e-02
-1.550200e-02 8.349370e-02 2.899507e-02
-1.453000e-02 8.356088e-02 2.904636e-02
-6.298700e-02 1.250812e-01 3.590613e-02
-1.257200e-02 8.370311e-02 2.911446e-02
-1.155900e-02 8.372725e-02 2.917150e-02
-1.053400e-02 8.376951e-02 2.924939e-02
-9.451000e-03 8.374650e-02 2.957445e-02
-8.458000e-03 8.380103e-02 2.967653e-02
