4.221400e-02 6.248460e-02 8.438415e-03
4.301700e-02 6.187909e-02 8.035367e-03
4.396700e-02 6.169799e-02 7.914398e-03
-1.111600e-02 1.219872e-01 1.762126e-02
4.772100e-02 6.940806e-02 2.632115e-03
1.652000e-03 9.420929e-02 2.963659e-02
-4.226000e-03 1.006156e-01 2.473498e-02
3.675000e-02 9.158688e-02 1.756508e-02
3.263400e-02 9.416827e-02 1.931151e-02
2.689400e-02 9.783008e-02 2.178133e-02
2.343200e-02 9.953871e-02 2.292601e-02
4.390900e-02 6.059507e-02 8.258206e-03
-6.458000e-03 1.194995e-01 2.006578e-02
-7.500000e-03 1.186519e-01 2.051094e-02
2.170300e-02 1.028943e-01 2.214019e-02
2.550500e-02 1.019537e-01 2.150755e-02
2.748000e-03 9.601852e-02 2.877244e-02
3.060700e-02 1.091896e-01 1.721334e-02
8.345000e-03 1.142847e-01 2.271467e-02
-1.903500e-02 9.430259e-02 3.081045e-02
-2.017700e-02 9.411778e-02 3.069430e-02
-1.010100e-02 1.016149e-01 2.539107e-02
-3.658700e-02 1.166755e-01 2.007364e-02
-3.253900e-02 1.162695e-01 1.980760e-02
-3.644000e-03 9.156737e-02 3.099005e-02
-1.233800e-02 1.199656e-01 1.827830e-02
-6.617000e-03 9.802991e-02 2.810262e-02
-1.334400e-02 1.105873e-01 2.322940e-02
-5.249200e-02 3.864034e-02 1.104817e-02
5.168700e-02 6.407445e-02 7.383242e-03
-1.411800e-02 1.137862e-01 2.231778e-02
1.869500e-02 9.413268e-02 2.442034e-02
3.545000e-02 1.033792e-01 1.632510e-02
1.626700e-02 1.173306e-01 1.970063e-02
1.990700e-02 1.160425e-01 1.881955e-02
-2.726400e-02 1.162467e-01 1.980679e-02
1.779000e-02 1.109760e-01 2.149204e-02
1.565700e-02 9.272364e-02 2.552312e-02
-2.759000e-02 4.218281e-02 2.185447e-02
-1.518000e-03 1.101705e-01 2.399634e-02
1.630900e-02 1.075280e-01 2.220174e-02
1.600000e-02 1.201066e-01 1.751539e-02
-5.633000e-03 9.788383e-02 2.800012e-02
-4.441000e-03 9.301634e-02 3.094166e-02
-4.533000e-03 9.796972e-02 2.805863e-02
-2.370300e-02 9.248306e-02 3.066252e-02
-3.027000e-02 3.907507e-02 2.198595e-02
-2.731800e-02 1.118358e-01 2.198701e-02
-1.640000e-02 1.168062e-01 2.024251e-02
-6.307100e-02 1.757497e-01 5.558211e-02
-3.821500e-02 4.786083e-02 1.594651e-02
3.231000e-03 1.180541e-01 2.117962e-02
-4.194300e-02 1.130966e-01 2.177495e-02
4.134000e-03 1.211237e-01 1.917857e-02
-1.495800e-02 9.140310e-02 3.198432e-02
-2.394100e-02 9.023177e-02 3.125950e-02
-2.275400e-02 9.049622e-02 3.142239e-02
1.516100e-02 8.717171e-02 2.695629e-02
-5.547000e-02 3.482783e-02 1.072184e-02
-3.508000e-03 9.790987e-02 2.801177e-02
2.277100e-02 1.046154e-01 2.126093e-02
-3.096200e-02 4.684852e-02 2.165887e-02
-4.180200e-02 1.142847e-01 2.155359e-02
-2.859000e-02 1.087828e-01 2.301390e-02
-4.435000e-03 1.107230e-01 2.436727e-02
1.974800e-02 1.040868e-01 2.192224e-02
-8.556000e-03 1.186159e-01 2.048304e-02
-3.220200e-02 4.825296e-02 2.045315e-02
-3.335100e-02 4.802923e-02 2.031344e-02
-2.296000e-03 1.184135e-01 2.036841e-02
3.387600e-02 9.622992e-02 1.866537e-02
-3.854900e-02 1.170208e-01 2.030729e-02
-3.861900e-02 1.160067e-01 2.064708e-02
-6.165500e-02 1.361596e-01 1.892288e-02
-6.076600e-02 1.357805e-01 1.867265e-02
-5.982900e-02 1.355279e-01 1.849420e-02
-5.886400e-02 1.353411e-01 1.835514e-02
-5.796100e-02 1.350104e-01 1.812837e-02
-5.708200e-02 1.346600e-01 1.787494e-02
-5.628300e-02 1.340926e-01 1.748256e-02
-5.553000e-02 1.333144e-01 1.696299e-02
-5.482400e-02 1.325773e-01 1.644103e-02
-5.400500e-02 1.322411e-01 1.617871e-02
-5.311000e-02 1.318508e-01 1.591559e-02
-5.227300e-02 1.314147e-01 1.561358e-02
-5.147400e-02 1.308008e-01 1.518864e-02
-5.068200e-02 1.302223e-01 1.478396e-02
-4.993100e-02 1.296225e-01 1.436758e-02
-4.923000e-02 1.288163e-01 1.379947e-02
-4.859300e-02 1.280292e-01 1.325502e-02
-4.785600e-02 1.273087e-01 1.274947e-02
-4.708400e-02 1.265952e-01 1.224122e-02
-4.636800e-02 1.259086e-01 1.177088e-02
-8.612000e-03 1.159486e-01 2.175160e-02
2.616600e-02 8.123805e-02 2.302788e-02
2.693000e-02 8.064079e-02 2.261470e-02
2.769700e-02 7.989926e-02 2.214811e-02
4.812600e-02 5.880955e-02 9.163424e-03
4.705500e-02 5.878772e-02 9.149339e-03
4.598500e-02 5.873722e-02 9.111092e-03
4.487500e-02 5.862127e-02 9.035250e-03
4.376400e-02 5.850142e-02 8.954315e-03
4.265900e-02 5.837883e-02 8.878311e-03
-5.365000e-02 3.838174e-02 1.087720e-02
7.090000e-04 1.223279e-01 1.792714e-02
-1.741800e-02 9.665799e-02 2.823937e-02
4.056400e-02 5.849184e-02 8.931126e-03
4.161500e-02 5.839428e-02 8.911469e-03
-9.678000e-03 1.159554e-01 2.175235e-02
5.232300e-02 6.909748e-02 3.491269e-03
1.143700e-02 1.200112e-01 1.947242e-02
1.336800e-02 1.196121e-01 1.920307e-02
-1.101200e-02 1.196578e-01 1.911042e-02
-1.227800e-02 1.192494e-01 1.881441e-02
-9.795000e-03 1.199989e-01 1.935523e-02
-7.508000e-03 1.203534e-01 1.961434e-02
-6.355000e-03 1.205022e-01 1.972529e-02
-1.001900e-02 9.837276e-02 2.731634e-02
-6.039000e-02 1.138016e-01 2.010968e-02
-3.978400e-02 4.754046e-02 1.468902e-02
1.427800e-02 1.142327e-01 2.166592e-02
-2.029000e-02 9.211685e-02 3.144095e-02
-1.294600e-02 1.157809e-01 2.161816e-02
4.174900e-02 5.956788e-02 8.625629e-03
4.278700e-02 5.953676e-02 8.612249e-03
1.281000e-02 9.000634e-02 2.782668e-02
1.186300e-02 9.025222e-02 2.799098e-02
1.698900e-02 1.191284e-01 1.786851e-02
9.956000e-03 9.067561e-02 2.829972e-02
9.046000e-03 9.100117e-02 2.851544e-02
-3.027500e-02 1.140206e-01 2.139714e-02
3.040300e-02 1.052967e-01 1.865483e-02
-1.153400e-02 9.368361e-02 3.140517e-02
-6.291700e-02 1.120280e-01 1.993314e-02
-1.401000e-02 1.157604e-01 2.160132e-02
-5.081200e-02 3.581174e-02 1.133604e-02
-2.706400e-02 4.006567e-02 2.158359e-02
2.316500e-02 6.349443e-02 2.174472e-02
-2.292000e-02 1.139613e-01 2.137071e-02
-2.181400e-02 1.140213e-01 2.141816e-02
-2.067000e-02 1.141840e-01 2.153707e-02
-1.953600e-02 1.143759e-01 2.166915e-02
-1.157000e-03 9.586224e-02 2.971930e-02
-2.060000e-04 9.563652e-02 2.957005e-02
7.700000e-04 9.546128e-02 2.944101e-02
1.748000e-03 9.528354e-02 2.931809e-02
2.737000e-03 9.514258e-02 2.922199e-02
3.722000e-03 9.498075e-02 2.911191e-02
4.722000e-03 9.485863e-02 2.903363e-02
5.692000e-03 9.466231e-02 2.889408e-02
6.605000e-03 9.433345e-02 2.867159e-02
7.491000e-03 9.397499e-02 2.842949e-02
8.369000e-03 9.357107e-02 2.815960e-02
9.318000e-03 9.332881e-02 2.799453e-02
1.027400e-02 9.311048e-02 2.784902e-02
4.130000e-03 1.118040e-01 2.414380e-02
-1.724800e-02 1.130040e-01 2.280926e-02
-2.636400e-02 3.843989e-02 2.141895e-02
-3.284900e-02 9.817740e-02 2.426984e-02
-2.132300e-02 9.394592e-02 3.058135e-02
-2.245600e-02 9.373915e-02 3.045052e-02
-2.105500e-02 9.988595e-02 2.525213e-02
-1.839600e-02 1.145650e-01 2.180090e-02
1.266700e-02 1.030893e-01 2.329052e-02
-1.107400e-02 1.203792e-01 1.857664e-02
-6.670000e-03 9.188376e-02 3.122511e-02
-7.653000e-03 9.205389e-02 3.134776e-02
-1.619300e-02 1.147806e-01 2.195600e-02
3.944300e-02 5.722909e-02 9.241901e-03
-4.226800e-02 1.098012e-01 2.264957e-02
4.522100e-02 6.377009e-02 7.210056e-03
3.545500e-02 1.016310e-01 1.718794e-02
3.383700e-02 1.027190e-01 1.792963e-02
2.605400e-02 1.133240e-01 1.695940e-02
-1.772300e-02 1.171252e-01 1.940991e-02
-2.027400e-02 9.668367e-02 2.621982e-02
2.397300e-02 6.298066e-02 2.139211e-02
-4.377400e-02 1.145912e-01 2.175961e-02
-3.234500e-02 4.882865e-02 1.976453e-02
-1.512400e-02 3.935204e-02 1.992704e-02
-9.467000e-03 3.818692e-02 1.907429e-02
-1.392900e-02 9.016476e-02 3.223148e-02
-1.508600e-02 1.148372e-01 2.200075e-02
-1.189700e-02 1.148585e-01 2.202583e-02
-3.539100e-02 4.853716e-02 1.745222e-02
2.420300e-02 9.802188e-02 2.293886e-02
8.826000e-03 1.096568e-01 2.364839e-02
-7.732000e-03 1.087101e-01 2.503866e-02
2.070200e-02 1.112381e-01 2.065830e-02
3.458000e-02 1.012204e-01 1.793462e-02
-2.051500e-02 1.128248e-01 2.267918e-02
-2.403700e-02 1.095267e-01 2.352790e-02
2.465300e-02 1.032462e-01 2.136133e-02
3.585800e-02 9.761133e-02 1.754785e-02
2.698500e-02 1.104964e-01 1.810292e-02
3.448500e-02 8.617213e-02 2.007983e-02
6.586000e-03 9.516607e-02 2.819100e-02
1.953700e-02 1.194490e-01 1.604029e-02
-2.154500e-02 9.512550e-02 2.929806e-02
-4.221100e-02 1.107898e-01 2.228248e-02
-2.042700e-02 9.094888e-02 3.170414e-02
5.068000e-02 6.506656e-02 7.006071e-03
-1.104500e-02 1.118426e-01 2.305863e-02
3.384700e-02 1.044716e-01 1.706960e-02
-2.486000e-03 9.781940e-02 2.795391e-02
-2.650400e-02 1.053101e-01 2.480276e-02
-1.242400e-02 1.077708e-01 2.441199e-02
-4.346000e-02 1.086115e-01 2.287657e-02
-1.185000e-02 1.175659e-01 2.077341e-02
-1.496000e-03 9.771700e-02 2.786620e-02
-3.558700e-02 1.139804e-01 2.135364e-02
2.745300e-02 1.024281e-01 2.080410e-02
-1.971700e-02 1.025395e-01 2.504767e-02
1.267700e-02 1.013656e-01 2.416658e-02
-1.268000e-02 9.694157e-02 2.943396e-02
3.195200e-02 1.015708e-01 1.919606e-02
-6.187600e-02 1.348514e-01 1.904407e-02
-6.105800e-02 1.345885e-01 1.888426e-02
-9.911000e-03 1.137625e-01 2.231280e-02
-5.907500e-02 1.340385e-01 1.848917e-02
-5.817700e-02 1.337014e-01 1.825005e-02
-5.733200e-02 1.332755e-01 1.794278e-02
-5.661000e-02 1.325378e-01 1.753481e-02
-5.577000e-02 1.319979e-01 1.707568e-02
-5.497800e-02 1.314813e-01 1.670063e-02
-5.406800e-02 1.311935e-01 1.649846e-02
-5.314000e-02 1.308866e-01 1.629065e-02
-5.231600e-02 1.304974e-01 1.601425e-02
-5.151100e-02 1.298916e-01 1.559663e-02
-5.072900e-02 1.293135e-01 1.519374e-02
-4.996000e-02 1.286670e-01 1.474361e-02
-4.924600e-02 1.279259e-01 1.422528e-02
-4.856000e-02 1.272341e-01 1.374389e-02
-4.776500e-02 1.265350e-01 1.325005e-02
-4.700900e-02 1.259310e-01 1.283611e-02
-4.628300e-02 1.252392e-01 1.236345e-02
-4.111900e-02 1.099036e-01 2.273262e-02
2.118200e-02 9.092435e-02 2.431066e-02
2.793200e-02 8.139077e-02 2.207305e-02
2.846000e-02 7.929620e-02 2.173428e-02
2.927600e-02 7.878877e-02 2.138935e-02
-2.822600e-02 1.139007e-01 2.132027e-02
1.129600e-02 1.205313e-01 1.881540e-02
7.247000e-03 1.209518e-01 1.907900e-02
-1.919900e-02 9.224774e-02 3.152952e-02
5.485800e-02 5.924580e-02 7.296947e-03
6.222000e-03 1.210322e-01 1.912933e-02
-5.433000e-03 9.315374e-02 3.102980e-02
2.048200e-02 8.592472e-02 2.511022e-02
-2.081100e-02 1.164735e-01 1.998816e-02
2.249000e-03 1.165289e-01 2.218266e-02
4.743500e-02 6.576359e-02 6.436965e-03
-2.999300e-02 4.578202e-02 2.203237e-02
3.329200e-02 8.511825e-02 2.044601e-02
4.853800e-02 6.579369e-02 6.458960e-03
4.963800e-02 6.588852e-02 6.519633e-03
-3.649000e-03 9.842428e-02 2.734597e-02
-2.451400e-02 9.490440e-02 2.710537e-02
-2.380700e-02 9.140794e-02 3.099489e-02
-2.252300e-02 9.180929e-02 3.124355e-02
-2.139000e-02 9.201085e-02 3.137204e-02
-2.326000e-03 1.217586e-01 1.855188e-02
1.016900e-02 1.212425e-01 1.827349e-02
5.141000e-03 1.218721e-01 1.866993e-02
-3.139300e-02 1.113004e-01 2.264696e-02
1.871100e-02 9.989637e-02 2.419931e-02
6.556000e-03 1.191859e-01 2.094612e-02
9.619000e-03 1.189484e-01 2.079498e-02
-1.839600e-02 3.830292e-02 2.024835e-02
2.222600e-02 9.174435e-02 2.383739e-02
1.505500e-02 1.203510e-01 1.768127e-02
-2.831700e-02 9.613197e-02 2.482236e-02
-2.723500e-02 9.626187e-02 2.492421e-02
-2.599600e-02 9.658317e-02 2.511966e-02
-2.489900e-02 9.668824e-02 2.519312e-02
-2.384000e-02 9.671238e-02 2.520921e-02
-2.277500e-02 9.671016e-02 2.520314e-02
-2.007300e-02 9.975913e-02 2.519195e-02
-2.167600e-02 9.682380e-02 2.527698e-02
-2.053900e-02 9.701036e-02 2.540147e-02
1.762000e-03 1.258988e-01 1.318635e-02
2.864000e-03 1.259302e-01 1.324167e-02
3.889000e-03 1.258925e-01 1.320602e-02
4.951000e-03 1.258755e-01 1.321052e-02
5.977000e-03 1.258392e-01 1.317677e-02
-1.934800e-02 9.724373e-02 2.555564e-02
-1.816500e-02 9.749116e-02 2.571838e-02
-1.700300e-02 9.767962e-02 2.585647e-02
-1.585600e-02 9.798387e-02 2.604710e-02
-1.478400e-02 9.816197e-02 2.615377e-02
-1.361500e-02 9.827714e-02 2.623942e-02
-2.722100e-02 1.129039e-01 2.167945e-02
2.394800e-02 9.002612e-02 2.370896e-02
-1.431000e-02 1.116464e-01 2.291967e-02
3.408000e-03 1.158946e-01 2.278091e-02
-4.987400e-02 1.177433e-01 2.075952e-02
2.171600e-02 1.162182e-01 1.791154e-02
-5.670000e-04 9.222352e-02 3.041055e-02
1.121600e-02 9.286070e-02 2.767962e-02
1.215000e-02 9.259381e-02 2.749608e-02
-1.626400e-02 1.128568e-01 2.271071e-02
-1.243500e-02 9.855585e-02 2.642079e-02
-3.564900e-02 3.793103e-02 2.233621e-02
-1.133800e-02 9.865396e-02 2.648357e-02
5.176000e-03 1.117530e-01 2.404032e-02
-1.023400e-02 9.875329e-02 2.654766e-02
-2.373100e-02 9.332216e-02 3.017684e-02
-1.704000e-02 1.206055e-01 1.662262e-02
-4.252000e-03 9.519304e-02 3.031306e-02
2.431100e-02 9.909887e-02 2.264686e-02
-8.641000e-03 9.220003e-02 3.144154e-02
-9.660000e-03 9.228111e-02 3.150416e-02
-1.068300e-02 9.236233e-02 3.156738e-02
-1.170500e-02 9.244594e-02 3.162855e-02
-5.856200e-02 1.215182e-01 1.811638e-02
4.472400e-02 5.745456e-02 9.322444e-03
3.465500e-02 1.022112e-01 1.758292e-02
1.873400e-02 1.107306e-01 2.132546e-02
-4.272500e-02 3.808001e-02 2.032407e-02
-2.616600e-02 1.163395e-01 1.987597e-02
-9.131000e-03 9.882564e-02 2.660465e-02
-8.070000e-03 9.886450e-02 2.661890e-02
-5.450000e-02 1.151231e-01 2.103757e-02
-5.335200e-02 1.152829e-01 2.115149e-02
-7.010000e-03 9.889465e-02 2.663217e-02
9.020000e-04 1.193627e-01 1.999807e-02
-5.946000e-03 9.894573e-02 2.665069e-02
-4.730000e-04 9.761939e-02 2.780580e-02
2.508200e-02 9.761762e-02 2.267184e-02
1.355000e-02 1.084287e-01 2.281071e-02
-4.846000e-03 9.901431e-02 2.670319e-02
-6.908200e-02 1.824200e-01 5.328947e-02
-3.858000e-03 9.882866e-02 2.658753e-02
2.147500e-02 1.098098e-01 2.069271e-02
-2.626700e-02 1.092222e-01 2.331803e-02
5.150000e-04 9.749268e-02 2.771013e-02
1.497000e-03 9.729636e-02 2.758862e-02
-5.885500e-02 3.524663e-02 9.937658e-03
-2.796000e-03 9.886764e-02 2.660237e-02
-2.036900e-02 9.541606e-02 2.948192e-02
-4.764400e-02 1.188154e-01 2.046231e-02
5.066300e-02 6.414993e-02 7.437091e-03
-2.156000e-02 9.074549e-02 3.157136e-02
-1.097300e-02 1.137569e-01 2.230868e-02
3.301100e-02 1.049641e-01 1.740645e-02
3.215700e-02 1.053911e-01 1.769639e-02
3.467800e-02 1.039251e-01 1.669180e-02
-1.940000e-04 1.192361e-01 1.991231e-02
-1.770000e-03 9.880149e-02 2.655248e-02
2.384700e-02 1.055031e-01 2.084064e-02
-2.095200e-02 1.186991e-01 1.840941e-02
2.526500e-02 8.653089e-02 2.343737e-02
-7.470000e-04 9.871673e-02 2.649933e-02
3.035800e-02 1.035483e-01 1.951648e-02
3.612900e-02 8.509240e-02 1.936875e-02
4.009700e-02 9.219295e-02 1.488828e-02
3.931600e-02 9.272636e-02 1.525357e-02
3.110900e-02 1.020104e-01 1.950079e-02
-1.785700e-02 1.193755e-01 1.784962e-02
-1.156000e-02 9.624547e-02 2.999851e-02
-8.848000e-03 1.137665e-01 2.231849e-02
-4.693000e-02 1.146679e-01 2.181010e-02
-6.291100e-02 1.129527e-01 1.951816e-02
-4.991900e-02 1.167333e-01 2.111432e-02
-5.762000e-02 1.317505e-01 1.793900e-02
-5.681200e-02 1.311325e-01 1.753514e-02
-5.597200e-02 1.307604e-01 1.724146e-02
-5.507900e-02 1.304596e-01 1.701338e-02
-5.413700e-02 1.302104e-01 1.684637e-02
-5.321300e-02 1.299084e-01 1.664842e-02
-5.237200e-02 1.294780e-01 1.634705e-02
-5.157500e-02 1.288021e-01 1.588723e-02
-5.078800e-02 1.282800e-01 1.551739e-02
-5.002000e-02 1.277476e-01 1.514348e-02
-4.929100e-02 1.269555e-01 1.459324e-02
-4.853600e-02 1.263019e-01 1.413650e-02
-4.776900e-02 1.257014e-01 1.372121e-02
-4.701100e-02 1.251116e-01 1.331236e-02
-4.611000e-02 1.247056e-01 1.303700e-02
-4.517700e-02 1.244207e-01 1.286191e-02
2.350000e-04 9.854994e-02 2.638812e-02
1.186000e-03 9.831578e-02 2.625713e-02
2.189000e-03 9.815723e-02 2.614916e-02
2.718700e-02 8.207150e-02 2.252876e-02
2.642700e-02 8.267119e-02 2.294454e-02
2.564900e-02 8.333689e-02 2.337353e-02
2.483800e-02 8.384872e-02 2.372593e-02
2.397800e-02 8.433596e-02 2.403309e-02
2.314100e-02 8.482961e-02 2.435726e-02
2.224800e-02 8.515680e-02 2.461681e-02
2.136700e-02 8.557914e-02 2.486200e-02
1.960200e-02 8.633345e-02 2.537599e-02
1.873400e-02 8.675010e-02 2.565255e-02
1.790400e-02 8.725191e-02 2.598869e-02
4.637400e-02 6.572574e-02 6.427488e-03
1.054200e-02 1.161356e-01 2.193666e-02
3.178000e-03 9.801645e-02 2.604493e-02
-1.576400e-02 3.744102e-02 1.954538e-02
4.136000e-03 9.783530e-02 2.590126e-02
-1.900900e-02 9.977207e-02 2.519515e-02
4.088400e-02 5.982980e-02 8.839457e-03
1.025900e-02 9.987289e-02 2.419086e-02
3.103400e-02 9.526562e-02 2.005716e-02
5.162000e-03 9.776953e-02 2.585315e-02
-1.794700e-02 9.978114e-02 2.519791e-02
-1.850900e-02 1.224360e-01 1.165197e-02
-1.688200e-02 9.976563e-02 2.517347e-02
-1.611300e-02 1.230280e-01 1.208959e-02
-1.493500e-02 1.232990e-01 1.228408e-02
-1.375700e-02 1.235568e-01 1.247358e-02
-1.253700e-02 1.238839e-01 1.271915e-02
-1.140000e-02 1.240737e-01 1.285448e-02
-1.026200e-02 1.242534e-01 1.298693e-02
-9.029000e-03 1.245402e-01 1.322042e-02
-7.896000e-03 1.247381e-01 1.335840e-02
-6.802000e-03 1.248758e-01 1.344367e-02
-5.658000e-03 1.250300e-01 1.356686e-02
-4.514000e-03 1.251891e-01 1.369526e-02
-3.415000e-03 1.252988e-01 1.377273e-02
-2.314000e-03 1.253881e-01 1.384326e-02
-1.210000e-03 1.254669e-01 1.391261e-02
-1.080000e-04 1.255411e-01 1.397854e-02
9.510000e-04 1.255770e-01 1.400118e-02
2.057000e-03 1.256291e-01 1.406056e-02
3.120000e-03 1.256302e-01 1.407058e-02
4.142000e-03 1.255933e-01 1.403851e-02
5.205000e-03 1.255824e-01 1.404485e-02
6.230000e-03 1.255042e-01 1.399594e-02
7.256000e-03 1.254385e-01 1.395309e-02
8.245000e-03 1.252888e-01 1.385135e-02
9.263000e-03 1.251685e-01 1.379073e-02
1.021900e-02 1.249972e-01 1.364874e-02
1.120600e-02 1.248287e-01 1.353850e-02
6.140000e-03 9.758107e-02 2.573311e-02
7.128000e-03 9.744529e-02 2.563467e-02
8.069000e-03 9.716271e-02 2.545287e-02
9.055000e-03 9.702281e-02 2.535281e-02
4.426300e-02 6.494301e-02 6.929959e-03
1.004200e-02 9.687139e-02 2.524739e-02
2.862600e-02 6.425638e-02 1.907316e-02
-4.279000e-02 1.144244e-01 2.164373e-02
1.574700e-02 9.462118e-02 2.475150e-02
1.884100e-02 1.185540e-01 1.746079e-02
1.302800e-02 9.219244e-02 2.722939e-02
1.392200e-02 9.184465e-02 2.699314e-02
2.519000e-03 9.721715e-02 2.753494e-02
-3.696400e-02 3.734252e-02 2.196475e-02
3.347400e-02 9.280179e-02 1.941570e-02
-4.258000e-03 9.689624e-02 2.937534e-02
2.824900e-02 1.009817e-01 2.086035e-02
1.892100e-02 8.801094e-02 2.546319e-02
-3.435600e-02 4.542445e-02 2.181248e-02
-1.359800e-02 1.074880e-01 2.421561e-02
2.776000e-02 9.741327e-02 2.149952e-02
3.347300e-02 9.367371e-02 1.897851e-02
3.836000e-02 9.049526e-02 1.682881e-02
-1.535500e-02 1.108157e-01 2.338244e-02
-1.272900e-02 9.252846e-02 3.168901e-02
-1.371900e-02 9.264849e-02 3.176181e-02
4.583800e-02 5.754937e-02 9.378458e-03
4.691000e-02 5.757800e-02 9.397960e-03
4.794100e-02 5.751285e-02 9.352834e-03
9.250000e-04 1.002995e-01 2.449239e-02
-3.664300e-02 1.157021e-01 2.044593e-02
1.102800e-02 9.671309e-02 2.514061e-02
2.785700e-02 6.477905e-02 1.945471e-02
1.979100e-02 1.050320e-01 2.155087e-02
-1.593900e-02 9.953629e-02 2.502499e-02
-1.091300e-02 1.030266e-01 2.532687e-02
3.218900e-02 1.063373e-01 1.731640e-02
2.681500e-02 9.678531e-02 2.210546e-02
-4.553700e-02 1.095959e-01 2.250319e-02
-6.998100e-02 1.817698e-01 5.381609e-02
-6.880400e-02 1.821465e-01 5.414521e-02
-5.908500e-02 5.827842e-02 -1.199448e-02
1.200800e-02 9.654858e-02 2.502674e-02
1.302300e-02 9.630879e-02 2.486893e-02
1.773500e-02 1.201315e-01 1.649968e-02
9.680000e-04 1.185988e-01 2.050964e-02
-5.060600e-02 3.716361e-02 1.113070e-02
-5.286800e-02 3.698943e-02 1.106521e-02
-5.464400e-02 1.139911e-01 2.131468e-02
-1.496100e-02 9.016202e-02 3.223641e-02
-4.133900e-02 1.187073e-01 2.041470e-02
3.255100e-02 1.115982e-01 1.269099e-02
-3.219300e-02 1.198364e-01 1.602432e-02
1.627800e-02 1.156643e-01 2.060290e-02
2.182200e-02 1.139258e-01 1.942404e-02
-3.583600e-02 1.091141e-01 2.322561e-02
-1.459000e-02 1.010720e-01 2.504800e-02
-3.345800e-02 3.806670e-02 2.231707e-02
-3.456400e-02 1.122311e-01 2.224254e-02
3.688100e-02 9.923992e-02 1.659188e-02
4.295000e-03 1.197336e-01 2.028173e-02
3.504000e-03 9.707469e-02 2.743168e-02
-2.057400e-02 1.135453e-01 2.213657e-02
-2.398100e-02 9.440033e-02 2.882399e-02
4.088300e-02 9.154018e-02 1.444444e-02
2.936700e-02 1.028342e-01 2.005807e-02
3.026900e-02 1.025013e-01 1.982989e-02
2.028100e-02 1.196074e-01 1.511695e-02
5.357900e-02 6.358498e-02 7.051973e-03
-7.741000e-03 1.138188e-01 2.235636e-02
-4.802700e-02 1.145360e-01 2.170337e-02
-6.160000e-02 1.134439e-01 1.985777e-02
-5.101600e-02 1.166253e-01 2.103587e-02
-5.787500e-02 1.303604e-01 1.800737e-02
-5.700500e-02 1.300047e-01 1.773764e-02
-5.610300e-02 1.296725e-01 1.750838e-02
-5.518100e-02 1.293581e-01 1.730090e-02
-5.423800e-02 1.291094e-01 1.713220e-02
-5.332700e-02 1.287887e-01 1.691236e-02
-5.248300e-02 1.283588e-01 1.660872e-02
-5.169900e-02 1.277254e-01 1.617636e-02
-5.093800e-02 1.271284e-01 1.575506e-02
-5.014100e-02 1.264989e-01 1.532313e-02
-4.936300e-02 1.259165e-01 1.491336e-02
-4.855500e-02 1.254496e-01 1.459509e-02
-4.778300e-02 1.248779e-01 1.421854e-02
-4.682600e-02 1.245789e-01 1.399008e-02
-4.586400e-02 1.243470e-01 1.386051e-02
-4.487300e-02 1.241680e-01 1.375433e-02
-4.387500e-02 1.240106e-01 1.365172e-02
-4.284800e-02 1.239180e-01 1.360178e-02
1.390100e-02 9.607069e-02 2.471015e-02
3.053200e-02 8.097270e-02 2.075923e-02
-1.495600e-02 9.939599e-02 2.493652e-02
3.028400e-02 1.127434e-01 1.451984e-02
-3.299600e-02 1.195424e-01 1.685449e-02
-3.388600e-02 1.199034e-01 1.711317e-02
-1.389700e-02 9.941651e-02 2.495337e-02
-3.658800e-02 4.865533e-02 1.353816e-02
-4.828100e-02 1.131740e-01 2.182902e-02
-1.079600e-02 1.183295e-01 2.027869e-02
1.588000e-02 1.206968e-01 1.688659e-02
1.486400e-02 9.586277e-02 2.456930e-02
1.706700e-02 8.775177e-02 2.631996e-02
1.625600e-02 8.826650e-02 2.667268e-02
1.540600e-02 8.875528e-02 2.699165e-02
1.456000e-02 8.924184e-02 2.730455e-02
1.370200e-02 8.966276e-02 2.758799e-02
4.854100e-02 6.406495e-02 7.387416e-03
-1.732300e-02 1.111347e-01 2.359859e-02
1.585000e-02 9.571105e-02 2.447141e-02
-2.172500e-02 1.215606e-01 1.204571e-02
-2.054500e-02 1.218184e-01 1.223521e-02
-1.936600e-02 1.220704e-01 1.242466e-02
-1.817800e-02 1.222920e-01 1.260371e-02
-1.700300e-02 1.225711e-01 1.280025e-02
-1.582800e-02 1.228357e-01 1.299110e-02
-1.460100e-02 1.231555e-01 1.323294e-02
-1.347700e-02 1.233793e-01 1.337790e-02
-1.224500e-02 1.236803e-01 1.361589e-02
-1.106100e-02 1.239171e-01 1.380014e-02
-9.926000e-03 1.241105e-01 1.393471e-02
-8.741000e-03 1.243472e-01 1.411836e-02
-7.606000e-03 1.245402e-01 1.425520e-02
-6.467000e-03 1.247256e-01 1.438771e-02
-5.365000e-03 1.248122e-01 1.445852e-02
-4.262000e-03 1.248979e-01 1.452981e-02
-3.162000e-03 1.250013e-01 1.460425e-02
-2.059000e-03 1.250788e-01 1.467229e-02
-9.950000e-04 1.251035e-01 1.469136e-02
6.400000e-05 1.251324e-01 1.471206e-02
1.170000e-03 1.251942e-01 1.477252e-02
2.231000e-03 1.252098e-01 1.478823e-02
3.295000e-03 1.252160e-01 1.479998e-02
4.358000e-03 1.252072e-01 1.480773e-02
5.422000e-03 1.251870e-01 1.481012e-02
6.444000e-03 1.251132e-01 1.476461e-02
7.471000e-03 1.250546e-01 1.472371e-02
8.458000e-03 1.248945e-01 1.461732e-02
9.443000e-03 1.247366e-01 1.451233e-02
1.043000e-02 1.245847e-01 1.440918e-02
1.141600e-02 1.244156e-01 1.430003e-02
1.236600e-02 1.241907e-01 1.414157e-02
1.333600e-02 1.239708e-01 1.401567e-02
1.424800e-02 1.236677e-01 1.379898e-02
1.519000e-02 1.234094e-01 1.362920e-02
1.686500e-02 9.561384e-02 2.439941e-02
1.785800e-02 9.547222e-02 2.431371e-02
1.884500e-02 9.530968e-02 2.420472e-02
1.981100e-02 9.511847e-02 2.405352e-02
-4.766100e-02 1.179113e-01 2.088542e-02
1.816900e-02 1.069618e-01 2.182405e-02
-1.877600e-02 1.068400e-01 2.479370e-02
-1.782400e-02 1.066564e-01 2.468758e-02
1.479400e-02 9.143271e-02 2.671653e-02
1.561600e-02 9.092216e-02 2.637475e-02
1.645700e-02 9.043285e-02 2.604874e-02
-2.736600e-02 3.850867e-02 2.154887e-02
-2.515600e-02 1.119512e-01 2.206919e-02
3.291000e-03 1.173100e-01 2.169980e-02
-2.327400e-02 1.054059e-01 2.485889e-02
2.070300e-02 9.473663e-02 2.381695e-02
4.519000e-03 9.696704e-02 2.736841e-02
5.473000e-03 9.675250e-02 2.721401e-02
-3.565400e-02 1.181164e-01 1.897909e-02
2.605500e-02 1.099450e-01 1.874944e-02
3.611000e-03 9.386629e-02 2.939622e-02
1.102500e-02 9.842735e-02 2.424662e-02
-1.482400e-02 9.258999e-02 3.173489e-02
-1.588400e-02 9.254134e-02 3.170092e-02
-1.694900e-02 9.252697e-02 3.169990e-02
1.610000e-02 1.135916e-01 2.123269e-02
1.897200e-02 1.129315e-01 2.078511e-02
1.803400e-02 1.131916e-01 2.096323e-02
4.925000e-03 1.103679e-01 2.411390e-02
2.163700e-02 9.447454e-02 2.362929e-02
-6.431400e-02 4.315009e-02 5.361460e-03
2.258100e-02 9.423106e-02 2.346292e-02
2.352300e-02 9.397823e-02 2.328794e-02
-5.793700e-02 1.171089e-01 1.924221e-02
6.416000e-03 9.649899e-02 2.704478e-02
2.446100e-02 9.372188e-02 2.310966e-02
-3.885700e-02 9.803193e-02 2.383276e-02
2.537400e-02 9.340069e-02 2.289675e-02
2.628300e-02 9.307087e-02 2.267416e-02
-1.271400e-02 9.966815e-02 2.511367e-02
2.715900e-02 9.267047e-02 2.240757e-02
2.804300e-02 9.226464e-02 2.214212e-02
-5.764200e-02 3.559429e-02 1.015527e-02
-5.174100e-02 3.703401e-02 1.107079e-02
1.518500e-02 1.138993e-01 2.143942e-02
-4.559200e-02 1.169585e-01 2.128388e-02
-4.453100e-02 1.169483e-01 2.127982e-02
1.255500e-02 1.176107e-01 2.090588e-02
-3.471200e-02 1.187215e-01 1.834964e-02
1.721900e-02 1.154055e-01 2.042668e-02
1.583700e-02 1.039436e-01 2.285018e-02
2.506800e-02 9.102089e-02 2.334897e-02
-2.737600e-02 1.108732e-01 2.236981e-02
-3.477500e-02 1.202837e-01 1.736063e-02
2.851800e-02 9.587165e-02 2.148864e-02
3.613600e-02 9.991489e-02 1.705160e-02
-3.469900e-02 1.178927e-01 1.882600e-02
2.889800e-02 9.183580e-02 2.184791e-02
-8.150000e-04 1.076891e-01 2.435104e-02
-2.276000e-02 9.475791e-02 2.906192e-02
2.753100e-02 1.034642e-01 2.047899e-02
2.845100e-02 1.031560e-01 2.027395e-02
2.489300e-02 1.063298e-01 2.038092e-02
2.392000e-02 1.065053e-01 2.050243e-02
-5.456900e-02 1.210070e-01 1.775358e-02
-1.018800e-02 8.935832e-02 3.165345e-02
-4.917200e-02 1.143928e-01 2.160993e-02
-3.379000e-03 1.158262e-01 2.168085e-02
-5.220900e-02 1.164062e-01 2.088213e-02
-5.808400e-02 1.290605e-01 1.814986e-02
-5.718700e-02 1.287250e-01 1.790917e-02
-5.628200e-02 1.283973e-01 1.768332e-02
-5.537100e-02 1.280755e-01 1.746278e-02
-5.443700e-02 1.278143e-01 1.727523e-02
-5.352800e-02 1.274897e-01 1.705496e-02
-5.267200e-02 1.270123e-01 1.673610e-02
-5.189100e-02 1.264868e-01 1.635016e-02
-5.110600e-02 1.259042e-01 1.594386e-02
-5.027900e-02 1.254080e-01 1.560311e-02
-4.942500e-02 1.249801e-01 1.530900e-02
-4.857900e-02 1.246743e-01 1.505243e-02
-4.751200e-02 1.245144e-01 1.499610e-02
-4.656600e-02 1.242637e-01 1.482719e-02
-4.558600e-02 1.240640e-01 1.471169e-02
-4.456400e-02 1.239512e-01 1.465541e-02
-4.357500e-02 1.238041e-01 1.455280e-02
-4.255200e-02 1.236992e-01 1.449798e-02
-4.153100e-02 1.236138e-01 1.445058e-02
-4.051000e-02 1.235025e-01 1.439273e-02
-3.949300e-02 1.233877e-01 1.433563e-02
2.977500e-02 9.142860e-02 2.157590e-02
1.373500e-02 1.013984e-01 2.419236e-02
1.479700e-02 1.014255e-01 2.421344e-02
-1.328800e-02 1.115844e-01 2.288072e-02
4.348000e-03 1.190906e-01 2.085630e-02
-4.876300e-02 1.178205e-01 2.082171e-02
2.263600e-02 1.159265e-01 1.772231e-02
-2.256000e-03 1.167867e-01 2.131528e-02
1.907700e-02 1.066353e-01 2.160356e-02
1.391600e-02 9.524663e-02 2.517308e-02
3.067000e-02 9.108745e-02 2.133982e-02
3.157600e-02 9.075737e-02 2.111603e-02
3.245800e-02 9.035117e-02 2.084879e-02
3.325100e-02 8.982012e-02 2.047678e-02
2.841000e-03 9.901684e-02 2.465427e-02
3.407500e-02 8.925725e-02 2.011052e-02
-2.252500e-02 1.212117e-01 1.286158e-02
-2.138900e-02 1.213979e-01 1.299360e-02
-2.025200e-02 1.215916e-01 1.312936e-02
-1.907000e-02 1.218291e-01 1.331252e-02
-1.793700e-02 1.220328e-01 1.345115e-02
-1.670500e-02 1.223335e-01 1.368795e-02
-1.553100e-02 1.226114e-01 1.388319e-02
-1.431200e-02 1.229469e-01 1.412855e-02
-1.314100e-02 1.232348e-01 1.432666e-02
-1.195000e-02 1.234474e-01 1.450354e-02
-1.076900e-02 1.236990e-01 1.469060e-02
-9.586000e-03 1.239430e-01 1.487740e-02
-8.446000e-03 1.241083e-01 1.500416e-02
-7.308000e-03 1.243027e-01 1.513884e-02
-6.172000e-03 1.244944e-01 1.527438e-02
-5.070000e-03 1.245778e-01 1.534367e-02
-3.965000e-03 1.246356e-01 1.540310e-02
-2.907000e-03 1.246711e-01 1.542396e-02
-1.843000e-03 1.246755e-01 1.543610e-02
-8.210000e-04 1.246427e-01 1.540565e-02
2.420000e-04 1.246491e-01 1.541800e-02
1.304000e-03 1.246533e-01 1.542895e-02
2.365000e-03 1.246721e-01 1.544677e-02
3.471000e-03 1.247172e-01 1.549954e-02
4.536000e-03 1.247388e-01 1.551709e-02
5.597000e-03 1.247500e-01 1.552999e-02
6.624000e-03 1.246883e-01 1.548816e-02
7.648000e-03 1.245942e-01 1.543513e-02
8.632000e-03 1.244348e-01 1.532765e-02
9.647000e-03 1.242961e-01 1.526032e-02
1.060500e-02 1.241037e-01 1.511248e-02
1.158700e-02 1.239317e-01 1.500359e-02
1.253600e-02 1.237046e-01 1.484313e-02
1.348100e-02 1.234534e-01 1.467589e-02
1.442400e-02 1.232001e-01 1.450785e-02
1.533800e-02 1.228952e-01 1.429153e-02
1.627900e-02 1.226366e-01 1.412056e-02
1.718200e-02 1.223002e-01 1.389374e-02
1.809000e-02 1.219747e-01 1.366930e-02
1.899600e-02 1.216415e-01 1.344399e-02
3.492600e-02 8.876978e-02 1.978878e-02
3.576100e-02 8.833216e-02 1.948427e-02
3.655800e-02 8.774761e-02 1.909114e-02
2.169300e-02 1.020187e-01 2.256882e-02
-6.412300e-02 1.116660e-01 1.967901e-02
-1.846700e-02 1.026444e-01 2.504836e-02
8.340000e-04 1.058214e-01 2.412206e-02
1.736100e-02 9.009853e-02 2.582272e-02
1.823800e-02 8.968953e-02 2.555110e-02
2.974300e-02 1.096030e-01 1.749710e-02
1.854800e-02 1.094888e-01 2.149308e-02
3.731600e-02 8.700813e-02 1.860732e-02
3.042100e-02 4.536349e-02 8.881336e-03
2.516000e-02 9.866175e-02 2.234473e-02
2.859000e-02 9.691095e-02 2.116099e-02
3.432100e-02 9.319310e-02 1.865347e-02
-1.868600e-02 1.164652e-01 1.999364e-02
-2.085000e-02 1.180755e-01 1.901350e-02
-5.214600e-02 1.190719e-01 1.957499e-02
-2.083000e-02 1.172800e-01 1.950465e-02
-5.570500e-02 1.191153e-01 1.853051e-02
-1.805600e-02 9.245194e-02 3.165715e-02
-2.500400e-02 9.100972e-02 3.072972e-02
-4.868000e-02 1.196703e-01 2.000692e-02
-5.220700e-02 1.198281e-01 1.904045e-02
-5.798800e-02 4.108033e-02 9.447443e-03
-5.920500e-02 4.075232e-02 9.242509e-03
-8.350000e-03 9.543972e-02 3.049026e-02
-3.122300e-02 3.931120e-02 2.212182e-02
3.892600e-02 1.002702e-01 1.316586e-02
-4.114100e-02 3.869209e-02 2.051543e-02
7.359000e-03 9.624401e-02 2.687305e-02
2.968200e-02 8.139575e-02 2.105280e-02
4.660000e-03 9.642768e-02 2.802327e-02
1.082700e-02 3.787665e-02 1.737445e-02
-6.526800e-02 1.811614e-01 5.536589e-02
-6.430000e-02 1.809850e-01 5.527163e-02
-1.157100e-02 9.985470e-02 2.523816e-02
4.360900e-02 6.580840e-02 7.514597e-03
-4.947000e-02 3.729471e-02 1.119776e-02
-3.623300e-02 4.810175e-02 1.824268e-02
-5.958100e-02 3.796556e-02 9.590358e-03
-1.100000e-04 1.060657e-01 2.428794e-02
2.603400e-02 6.459899e-02 2.036922e-02
3.436100e-02 1.084342e-01 1.361175e-02
1.906700e-02 1.148286e-01 2.003847e-02
-9.912000e-03 1.103465e-01 2.410220e-02
-2.405900e-02 1.103441e-01 2.304677e-02
-2.836000e-02 1.110167e-01 2.246445e-02
6.421000e-03 1.147038e-01 2.299848e-02
3.179200e-02 9.378010e-02 2.007526e-02
1.585200e-02 1.048264e-01 2.242003e-02
-2.218600e-02 1.191591e-01 1.768222e-02
4.446400e-02 6.621873e-02 6.744019e-03
2.569300e-02 1.040646e-01 2.088903e-02
2.474500e-02 1.043135e-01 2.105892e-02
2.660300e-02 1.037380e-01 2.066855e-02
2.677200e-02 1.057937e-01 2.002115e-02
2.584600e-02 1.060924e-01 2.022105e-02
5.700000e-03 9.553959e-02 2.844643e-02
1.834300e-02 9.081227e-02 2.526131e-02
2.334800e-02 9.274155e-02 2.348000e-02
-5.019400e-02 1.144539e-01 2.164470e-02
-2.234000e-03 1.159817e-01 2.179255e-02
-5.330100e-02 1.162780e-01 2.078863e-02
-2.501900e-02 1.164898e-01 1.998941e-02
-2.626100e-02 1.169816e-01 1.927452e-02
1.622200e-02 1.180728e-01 1.918082e-02
3.916600e-02 8.991847e-02 1.644120e-02
-3.282500e-02 1.182339e-01 1.801799e-02
-5.391900e-02 1.259605e-01 1.708098e-02
-5.294700e-02 1.255530e-01 1.678043e-02
-5.213400e-02 1.250538e-01 1.641605e-02
-5.125900e-02 1.247408e-01 1.617032e-02
-5.036200e-02 1.244591e-01 1.596126e-02
-4.935200e-02 1.242587e-01 1.585617e-02
-4.832300e-02 1.241816e-01 1.581261e-02
-4.729100e-02 1.241259e-01 1.577670e-02
-4.626900e-02 1.240489e-01 1.572908e-02
-4.532200e-02 1.238046e-01 1.556320e-02
-4.426600e-02 1.237539e-01 1.555985e-02
-4.328000e-02 1.235919e-01 1.545323e-02
-4.225600e-02 1.234967e-01 1.540009e-02
-4.127200e-02 1.233395e-01 1.529402e-02
-4.025200e-02 1.232263e-01 1.523595e-02
-3.927000e-02 1.230673e-01 1.513026e-02
-3.829000e-02 1.229134e-01 1.502630e-02
-5.426200e-02 3.516885e-02 1.093929e-02
-2.134400e-02 9.304079e-02 3.103578e-02
5.045700e-02 6.105122e-02 8.538602e-03
1.112100e-02 9.157976e-02 2.794413e-02
-1.795500e-02 9.350670e-02 3.131319e-02
-1.047000e-02 9.994954e-02 2.529883e-02
-3.174000e-03 9.608167e-02 2.986551e-02
2.350900e-02 1.155247e-01 1.744451e-02
4.501700e-02 6.924250e-02 6.671227e-03
-2.897300e-02 1.201277e-01 1.313825e-02
-2.790300e-02 1.201946e-01 1.316496e-02
-2.684900e-02 1.202985e-01 1.320103e-02
4.561400e-02 6.814565e-02 5.946012e-03
4.636500e-02 6.752551e-02 5.522701e-03
4.742300e-02 6.744696e-02 5.476655e-03
-2.223100e-02 1.209895e-01 1.375508e-02
-2.109500e-02 1.211808e-01 1.388883e-02
-1.996000e-02 1.213735e-01 1.402448e-02
-1.876500e-02 1.215767e-01 1.419681e-02
-1.763400e-02 1.217813e-01 1.433555e-02
-1.650600e-02 1.219941e-01 1.447694e-02
-1.528200e-02 1.223228e-01 1.472154e-02
-1.405500e-02 1.226361e-01 1.495974e-02
-1.288200e-02 1.229149e-01 1.515509e-02
-1.165600e-02 1.232260e-01 1.539189e-02
-1.047500e-02 1.234777e-01 1.557955e-02
-9.336000e-03 1.236573e-01 1.571141e-02
-8.151000e-03 1.238878e-01 1.589202e-02
-7.059000e-03 1.240305e-01 1.597843e-02
-5.915000e-03 1.241736e-01 1.609864e-02
-4.814000e-03 1.242700e-01 1.617113e-02
-3.752000e-03 1.242874e-01 1.618646e-02
-2.690000e-03 1.242669e-01 1.618766e-02
-1.667000e-03 1.241818e-01 1.613738e-02
-6.430000e-04 1.241118e-01 1.609172e-02
3.790000e-04 1.240905e-01 1.606663e-02
1.440000e-03 1.241079e-01 1.608196e-02
2.545000e-03 1.241642e-01 1.613890e-02
3.648000e-03 1.242466e-01 1.620808e-02
4.707000e-03 1.242894e-01 1.623208e-02
5.774000e-03 1.243028e-01 1.624638e-02
6.799000e-03 1.242063e-01 1.619135e-02
7.822000e-03 1.241112e-01 1.613820e-02
8.810000e-03 1.239779e-01 1.604297e-02
9.791000e-03 1.237900e-01 1.592530e-02
1.074600e-02 1.235815e-01 1.577275e-02
1.172300e-02 1.233857e-01 1.565363e-02
1.267200e-02 1.231529e-01 1.549311e-02
1.361600e-02 1.229013e-01 1.532409e-02
1.455500e-02 1.226386e-01 1.515149e-02
1.547400e-02 1.223441e-01 1.493984e-02
1.641000e-02 1.220743e-01 1.476529e-02
1.732200e-02 1.217593e-01 1.454551e-02
1.822700e-02 1.214291e-01 1.432112e-02
1.913900e-02 1.211137e-01 1.410015e-02
2.004900e-02 1.207936e-01 1.387863e-02
2.094200e-02 1.204335e-01 1.364217e-02
2.180900e-02 1.200223e-01 1.336041e-02
4.845500e-02 6.743211e-02 5.459860e-03
-2.743400e-02 1.098710e-01 2.272141e-02
-9.408000e-03 9.996201e-02 2.530430e-02
2.221800e-02 1.183815e-01 1.531080e-02
2.088000e-03 1.118193e-01 2.412224e-02
1.204800e-02 1.215570e-01 1.747356e-02
1.910900e-02 8.927724e-02 2.527736e-02
1.997800e-02 8.886215e-02 2.499924e-02
2.084200e-02 8.844148e-02 2.471700e-02
5.590500e-02 6.088116e-02 6.292267e-03
5.512800e-02 6.153282e-02 6.717362e-03
5.432300e-02 6.204780e-02 7.071277e-03
5.347300e-02 6.247955e-02 7.365818e-03
3.756500e-02 9.102318e-02 1.718592e-02
4.434000e-03 1.158431e-01 2.274721e-02
-2.394000e-02 1.157231e-01 2.050066e-02
-4.447100e-02 1.179479e-01 2.092503e-02
-4.984800e-02 1.186357e-01 2.032986e-02
8.347000e-03 9.609444e-02 2.677190e-02
2.602100e-02 1.090075e-01 1.913506e-02
-3.863600e-02 1.151113e-01 2.108048e-02
4.955500e-02 6.745984e-02 5.488574e-03
-3.213800e-02 4.570494e-02 2.198882e-02
-5.309500e-02 3.541911e-02 1.109303e-02
3.927200e-02 9.181900e-02 1.566584e-02
-4.015000e-02 4.754056e-02 1.362748e-02
2.869800e-02 8.065201e-02 2.160619e-02
-5.148000e-02 3.863131e-02 1.106811e-02
-3.880900e-02 3.962316e-02 2.126922e-02
9.295000e-03 9.585617e-02 2.660787e-02
3.378900e-02 1.017521e-01 1.830089e-02
5.065700e-02 6.754887e-02 5.548598e-03
-6.544400e-02 1.798006e-01 5.542532e-02
-6.439200e-02 1.799201e-01 5.552251e-02
-6.339300e-02 1.798378e-01 5.547663e-02
-6.254800e-02 1.794093e-01 5.521097e-02
5.167800e-02 6.749872e-02 5.507479e-03
5.269900e-02 6.744252e-02 5.464519e-03
5.371700e-02 6.735676e-02 5.406608e-03
3.751800e-02 9.010529e-02 1.759294e-02
-2.856900e-02 4.234826e-02 2.198184e-02
2.683600e-02 6.408632e-02 2.001731e-02
1.757500e-02 9.314019e-02 2.477768e-02
-1.106600e-02 1.109552e-01 2.348537e-02
4.504100e-02 6.075592e-02 8.350135e-03
-2.934300e-02 1.111661e-01 2.256500e-02
-3.036600e-02 1.112568e-01 2.262811e-02
3.430200e-02 9.235136e-02 1.910859e-02
3.298900e-02 1.031584e-01 1.822910e-02
-4.424400e-02 1.118599e-01 2.197574e-02
3.126900e-02 1.040888e-01 1.885827e-02
3.037500e-02 1.044338e-01 1.909479e-02
2.946700e-02 1.047608e-01 1.931706e-02
2.858000e-02 1.051188e-01 1.956144e-02
2.767900e-02 1.054830e-01 1.980419e-02
2.053500e-02 9.351086e-02 2.401605e-02
-8.510000e-03 9.683471e-02 2.934749e-02
1.304600e-02 1.056346e-01 2.295694e-02
1.482400e-02 9.491982e-02 2.495140e-02
-5.125200e-02 1.144186e-01 2.161166e-02
-1.100000e-03 1.161829e-01 2.193265e-02
-5.444200e-02 1.161063e-01 2.066755e-02
-2.396300e-02 1.165399e-01 2.002121e-02
-2.736600e-02 1.168930e-01 1.920756e-02
1.710000e-02 1.176937e-01 1.893000e-02
2.938000e-03 1.000807e-01 2.434916e-02
-3.181000e-02 1.181229e-01 1.795260e-02
-5.414100e-02 1.244686e-01 1.704133e-02
-5.324100e-02 1.240972e-01 1.680942e-02
-5.229400e-02 1.239018e-01 1.664727e-02
-5.127200e-02 1.238184e-01 1.659196e-02
-5.025800e-02 1.237326e-01 1.652939e-02
-4.920200e-02 1.237133e-01 1.652723e-02
-4.817800e-02 1.236436e-01 1.648275e-02
-4.707400e-02 1.237333e-01 1.655507e-02
-4.601000e-02 1.237399e-01 1.656396e-02
-4.502500e-02 1.235799e-01 1.645816e-02
-4.400500e-02 1.235022e-01 1.641163e-02
-4.298000e-02 1.234242e-01 1.636390e-02
-4.199900e-02 1.232087e-01 1.624082e-02
-4.101700e-02 1.230384e-01 1.613096e-02
-4.003300e-02 1.228736e-01 1.602462e-02
-3.901800e-02 1.227543e-01 1.596411e-02
-3.803900e-02 1.225957e-01 1.585614e-02
-3.710000e-02 1.223578e-01 1.569389e-02
5.470200e-02 6.721215e-02 5.306603e-03
5.567200e-02 6.703407e-02 5.186555e-03
-3.437900e-02 1.214031e-01 1.503000e-02
-3.347200e-02 1.210654e-01 1.480128e-02
-3.256800e-02 1.207223e-01 1.457370e-02
-4.693700e-02 4.063469e-02 1.160212e-02
-2.181000e-03 9.596422e-02 2.978252e-02
-4.261600e-02 3.810526e-02 2.005744e-02
-2.867700e-02 1.199264e-01 1.403700e-02
-2.756600e-02 1.199676e-01 1.409400e-02
-2.650100e-02 1.200319e-01 1.412157e-02
-2.536000e-02 1.202230e-01 1.425413e-02
-2.422500e-02 1.204344e-01 1.439363e-02
-2.309600e-02 1.206640e-01 1.453865e-02
-2.196100e-02 1.208714e-01 1.467711e-02
-2.081200e-02 1.209976e-01 1.479310e-02
-1.966300e-02 1.211348e-01 1.491148e-02
-1.851600e-02 1.212907e-01 1.503369e-02
-1.737700e-02 1.214699e-01 1.516377e-02
-1.624100e-02 1.216629e-01 1.530121e-02
-1.506500e-02 1.219325e-01 1.549320e-02
-1.384800e-02 1.222722e-01 1.574018e-02
-1.268000e-02 1.225652e-01 1.594002e-02
-1.145200e-02 1.228834e-01 1.617936e-02
-1.026900e-02 1.231294e-01 1.636231e-02
-9.126000e-03 1.233058e-01 1.649206e-02
-7.946000e-03 1.235612e-01 1.667955e-02
-6.809000e-03 1.237236e-01 1.680600e-02
-5.703000e-03 1.238182e-01 1.687886e-02
-4.640000e-03 1.238403e-01 1.689414e-02
-3.576000e-03 1.238413e-01 1.690356e-02
-2.516000e-03 1.238001e-01 1.689604e-02
-1.529000e-03 1.236701e-01 1.680291e-02
-5.440000e-04 1.235535e-01 1.671477e-02
4.780000e-04 1.234818e-01 1.667008e-02
1.579000e-03 1.235512e-01 1.673081e-02
2.682000e-03 1.236312e-01 1.679739e-02
3.779000e-03 1.237347e-01 1.687242e-02
4.886000e-03 1.237978e-01 1.693012e-02
6.026000e-03 1.237514e-01 1.687079e-02
6.970000e-03 1.236964e-01 1.688326e-02
7.958000e-03 1.235682e-01 1.678916e-02
8.979000e-03 1.234729e-01 1.673542e-02
9.930000e-03 1.232513e-01 1.657908e-02
1.091000e-02 1.230786e-01 1.646662e-02
1.185700e-02 1.228324e-01 1.630052e-02
1.280300e-02 1.225904e-01 1.613665e-02
1.375000e-02 1.223421e-01 1.596974e-02
1.465900e-02 1.220303e-01 1.575207e-02
1.557900e-02 1.217408e-01 1.554215e-02
1.651900e-02 1.214764e-01 1.537053e-02
1.742400e-02 1.211933e-01 1.522183e-02
1.836500e-02 1.208861e-01 1.497208e-02
1.927000e-02 1.205506e-01 1.474537e-02
2.016200e-02 1.201945e-01 1.448257e-02
2.108100e-02 1.198899e-01 1.429481e-02
2.195900e-02 1.195009e-01 1.401960e-02
2.282300e-02 1.190804e-01 1.373389e-02
5.656400e-02 6.665934e-02 4.929828e-03
-4.242400e-02 1.177944e-01 2.082752e-02
1.482000e-02 9.238241e-02 2.631715e-02
-1.628200e-02 1.119695e-01 2.313745e-02
-1.867800e-02 1.013387e-01 2.520824e-02
1.376600e-02 1.040472e-01 2.293453e-02
1.783900e-02 1.036903e-01 2.267748e-02
-2.204800e-02 1.186076e-01 1.833746e-02
2.168600e-02 8.800190e-02 2.440761e-02
2.255000e-02 8.753166e-02 2.411400e-02
2.341000e-02 8.725009e-02 2.388749e-02
2.436300e-02 8.687413e-02 2.367893e-02
5.257200e-02 6.281437e-02 7.594213e-03
5.160300e-02 6.301711e-02 7.737394e-03
2.820000e-02 8.285758e-02 2.197021e-02
-1.587100e-02 9.519293e-02 3.034855e-02
-1.693100e-02 9.516496e-02 3.033668e-02
2.451400e-02 1.012634e-01 2.205471e-02
1.045100e-02 1.201560e-01 1.957302e-02
1.157500e-02 1.030406e-01 2.327865e-02
-1.730700e-02 1.137597e-01 2.229037e-02
-1.108300e-02 1.017488e-01 2.546252e-02
-9.525000e-03 9.346964e-02 3.126248e-02
5.555400e-02 6.416824e-02 6.390390e-03
3.585500e-02 8.367253e-02 1.943437e-02
1.026600e-02 9.565655e-02 2.647959e-02
5.740700e-02 6.622145e-02 4.637509e-03
-5.492900e-02 3.796885e-02 1.063657e-02
-3.762100e-02 4.006258e-02 2.157335e-02
1.122500e-02 9.545019e-02 2.633716e-02
5.815300e-02 6.561313e-02 4.230073e-03
-8.384000e-03 9.989300e-02 2.525874e-02
-2.340000e-04 1.208492e-01 1.896334e-02
-6.255500e-02 1.785619e-01 5.559853e-02
-4.132100e-02 1.196181e-01 1.999641e-02
-3.385600e-02 4.874803e-02 1.864215e-02
4.335000e-03 1.181542e-01 2.125194e-02
9.202000e-03 9.223013e-02 2.829109e-02
2.358500e-02 1.015349e-01 2.224226e-02
-3.045100e-02 1.162249e-01 1.977932e-02
1.217000e-02 9.520210e-02 2.616679e-02
5.339000e-03 9.730165e-02 2.656083e-02
-5.672000e-02 3.438400e-02 1.044166e-02
-3.729300e-02 4.178498e-02 2.162717e-02
-4.126400e-02 1.088244e-01 2.302788e-02
-2.871700e-02 3.704828e-02 2.152033e-02
-2.993400e-02 4.859612e-02 2.066735e-02
-2.420100e-02 1.065547e-01 2.460810e-02
-4.203300e-02 1.119946e-01 2.205542e-02
1.964100e-02 9.388933e-02 2.425457e-02
3.829000e-03 9.886921e-02 2.455335e-02
3.830000e-02 1.003141e-01 1.422534e-02
3.903400e-02 9.969445e-02 1.380907e-02
3.974600e-02 9.888466e-02 1.325103e-02
-2.900800e-02 4.938934e-02 2.011134e-02
-1.602500e-02 3.968945e-02 2.016329e-02
-5.231000e-02 1.143919e-01 2.158771e-02
4.900000e-05 1.163311e-01 2.204062e-02
-5.563300e-02 1.158763e-01 2.050210e-02
-2.285800e-02 1.166093e-01 2.007787e-02
-2.842400e-02 1.168753e-01 1.919510e-02
1.796100e-02 1.172559e-01 1.862023e-02
3.622700e-02 1.018534e-01 1.630902e-02
-3.070800e-02 1.181920e-01 1.801214e-02
-5.532600e-02 1.233394e-01 1.731411e-02
-5.439600e-02 1.230865e-01 1.712515e-02
-5.337700e-02 1.230050e-01 1.706946e-02
-5.236100e-02 1.229311e-01 1.701404e-02
-5.126600e-02 1.229866e-01 1.705402e-02
-5.020200e-02 1.230097e-01 1.707406e-02
-4.906400e-02 1.231544e-01 1.718805e-02
-4.800000e-02 1.231768e-01 1.720452e-02
-4.689900e-02 1.232598e-01 1.727202e-02
-4.579700e-02 1.233400e-01 1.733920e-02
-4.481000e-02 1.231896e-01 1.723448e-02
-4.378600e-02 1.231117e-01 1.718675e-02
-4.276400e-02 1.230360e-01 1.714103e-02
-4.178100e-02 1.228731e-01 1.703491e-02
-4.076100e-02 1.227469e-01 1.696839e-02
-3.978200e-02 1.225695e-01 1.685598e-02
-3.880300e-02 1.223989e-01 1.674492e-02
-3.782400e-02 1.222218e-01 1.663371e-02
-3.688300e-02 1.219746e-01 1.646750e-02
-3.594900e-02 1.217157e-01 1.629534e-02
-3.508500e-02 1.213077e-01 1.601510e-02
-3.419900e-02 1.209350e-01 1.574521e-02
-3.329200e-02 1.206048e-01 1.552082e-02
-3.235700e-02 1.203112e-01 1.534070e-02
-3.139600e-02 1.200938e-01 1.518598e-02
1.144000e-03 1.164449e-01 2.211971e-02
-7.322000e-03 9.988897e-02 2.525305e-02
-2.838200e-02 1.197079e-01 1.493034e-02
-2.727300e-02 1.197713e-01 1.499388e-02
-2.620800e-02 1.198110e-01 1.501230e-02
-2.505900e-02 1.199542e-01 1.513252e-02
-2.391100e-02 1.201230e-01 1.525793e-02
-2.277700e-02 1.203277e-01 1.539667e-02
-2.164300e-02 1.205210e-01 1.553123e-02
-2.051000e-02 1.207429e-01 1.567539e-02
-1.942000e-02 1.209046e-01 1.576683e-02
-1.831900e-02 1.210016e-01 1.584229e-02
-1.716300e-02 1.210848e-01 1.593775e-02
-1.607200e-02 1.212141e-01 1.602324e-02
-1.494700e-02 1.214360e-01 1.617205e-02
-1.372600e-02 1.217651e-01 1.641378e-02
-1.245400e-02 1.221494e-01 1.670242e-02
-1.123400e-02 1.224862e-01 1.694501e-02
-1.009200e-02 1.226730e-01 1.707941e-02
-8.915000e-03 1.229322e-01 1.726675e-02
-7.735000e-03 1.231836e-01 1.745321e-02
-6.588000e-03 1.233372e-01 1.757343e-02
-5.529000e-03 1.233794e-01 1.759911e-02
-4.462000e-03 1.233866e-01 1.761097e-02
-3.403000e-03 1.233576e-01 1.760772e-02
-2.414000e-03 1.232205e-01 1.751205e-02
-1.429000e-03 1.230655e-01 1.740739e-02
-4.090000e-04 1.229823e-01 1.735733e-02
6.140000e-04 1.229447e-01 1.732635e-02
1.716000e-03 1.230028e-01 1.738291e-02
2.818000e-03 1.230897e-01 1.745084e-02
3.917000e-03 1.232111e-01 1.753486e-02
5.025000e-03 1.232636e-01 1.758731e-02
6.085000e-03 1.232655e-01 1.759625e-02
7.107000e-03 1.231666e-01 1.753861e-02
8.093000e-03 1.230076e-01 1.743292e-02
9.079000e-03 1.228528e-01 1.732945e-02
1.003400e-02 1.226357e-01 1.717651e-02
1.101000e-02 1.224454e-01 1.705625e-02
1.195700e-02 1.222055e-01 1.689378e-02
1.290400e-02 1.219705e-01 1.673186e-02
1.382200e-02 1.216775e-01 1.652269e-02
1.476500e-02 1.214225e-01 1.635097e-02
1.571300e-02 1.211774e-01 1.618557e-02
1.668100e-02 1.209772e-01 1.606363e-02
7.396000e-03 3.627983e-02 1.663689e-02
3.400000e-03 3.653120e-02 1.744840e-02
2.413000e-03 3.644608e-02 1.749707e-02
1.401000e-03 3.659628e-02 1.773621e-02
4.030000e-04 3.657597e-02 1.764839e-02
-5.820000e-04 3.654541e-02 1.788067e-02
-1.579000e-03 3.653005e-02 1.789292e-02
-2.588000e-03 3.668819e-02 1.792693e-02
-3.577000e-03 3.656467e-02 1.805801e-02
-4.580000e-03 3.661676e-02 1.809934e-02
-5.576000e-03 3.658111e-02 1.812736e-02
-6.576000e-03 3.656321e-02 1.825805e-02
-7.572000e-03 3.658754e-02 1.833352e-02
-3.984600e-02 9.798299e-02 2.372543e-02
-4.085000e-02 9.794960e-02 2.359773e-02
-4.185200e-02 9.792790e-02 2.353477e-02
-4.284900e-02 9.791746e-02 2.352545e-02
-1.357500e-02 3.681976e-02 1.901777e-02
-1.457800e-02 3.690508e-02 1.924906e-02
-1.557900e-02 3.689794e-02 1.924652e-02
-4.384300e-02 9.790445e-02 2.351294e-02
-4.484400e-02 9.789899e-02 2.350942e-02
-4.584200e-02 9.793016e-02 2.361301e-02
-4.684100e-02 9.794353e-02 2.367678e-02
-2.249100e-02 3.720621e-02 2.056783e-02
-2.352500e-02 3.730835e-02 2.070382e-02
-2.454100e-02 3.740992e-02 2.089561e-02
-2.551200e-02 3.735148e-02 2.090944e-02
-4.784100e-02 9.795700e-02 2.373649e-02
1.426100e-02 3.731896e-02 1.601589e-02
1.335400e-02 3.738280e-02 1.645080e-02
1.225300e-02 3.754767e-02 1.684989e-02
-4.884300e-02 9.797012e-02 2.379907e-02
1.038500e-02 3.765709e-02 1.727711e-02
9.412000e-03 3.769417e-02 1.748089e-02
8.404000e-03 3.774867e-02 1.760572e-02
7.414000e-03 3.777079e-02 1.771121e-02
6.411000e-03 3.782545e-02 1.785934e-02
5.420000e-03 3.784094e-02 1.796467e-02
4.419000e-03 3.789784e-02 1.810548e-02
3.432000e-03 3.791835e-02 1.822127e-02
2.420000e-03 3.796792e-02 1.834962e-02
1.422000e-03 3.798963e-02 1.843062e-02
4.200000e-04 3.801822e-02 1.849493e-02
-5.800000e-04 3.804195e-02 1.857208e-02
-1.583000e-03 3.806985e-02 1.862410e-02
-2.583000e-03 3.806309e-02 1.864138e-02
-3.581000e-03 3.808788e-02 1.871458e-02
-4.580000e-03 3.807433e-02 1.874449e-02
-5.582000e-03 3.810606e-02 1.879227e-02
-6.580000e-03 3.809476e-02 1.881487e-02
-7.582000e-03 3.812724e-02 1.886623e-02
-8.587000e-03 3.818557e-02 1.898683e-02
-4.983800e-02 9.659932e-02 2.373865e-02
-5.084700e-02 9.660010e-02 2.374689e-02
-5.185200e-02 9.659742e-02 2.374310e-02
-1.259800e-02 3.830821e-02 1.935559e-02
-1.360200e-02 3.835929e-02 1.950913e-02
-1.459500e-02 3.841138e-02 1.968549e-02
-4.984500e-02 9.797559e-02 2.382063e-02
-5.085200e-02 9.797906e-02 2.383266e-02
-5.185800e-02 9.797076e-02 2.382009e-02
-1.859700e-02 3.864959e-02 2.038030e-02
-1.961200e-02 3.873121e-02 2.056695e-02
-2.061700e-02 3.878337e-02 2.070316e-02
-2.159200e-02 3.880652e-02 2.084950e-02
