1.015502e+00 9.426809e-01 1.041190e+00
1.016501e+00 9.427429e-01 1.040828e+00
9.699519e-01 9.916869e-01 9.697059e-01
1.018495e+00 9.428299e-01 1.040180e+00
1.019528e+00 9.428859e-01 1.040002e+00
1.020495e+00 9.429299e-01 1.039705e+00
1.021530e+00 9.429729e-01 1.039321e+00
1.022526e+00 9.430089e-01 1.038992e+00
1.023520e+00 9.430599e-01 1.038770e+00
1.024523e+00 9.430899e-01 1.038387e+00
1.025502e+00 9.431259e-01 1.038085e+00
9.627319e-01 1.024768e+00 1.038976e+00
9.685149e-01 1.040124e+00 1.026155e+00
1.067047e+00 1.008980e+00 1.012214e+00
1.029671e+00 9.433319e-01 1.037102e+00
1.030766e+00 9.433969e-01 1.036937e+00
1.031866e+00 9.434599e-01 1.036813e+00
1.032964e+00 9.435229e-01 1.036658e+00
1.034116e+00 9.436019e-01 1.036505e+00
1.031897e+00 1.009258e+00 9.696489e-01
1.036307e+00 9.437279e-01 1.036162e+00
1.037400e+00 9.437929e-01 1.035967e+00
1.038494e+00 9.438579e-01 1.035784e+00
1.039591e+00 9.439199e-01 1.035634e+00
1.040689e+00 9.439839e-01 1.035469e+00
1.041785e+00 9.440479e-01 1.035294e+00
1.042864e+00 9.441209e-01 1.035070e+00
1.043795e+00 9.441199e-01 1.034717e+00
1.044737e+00 9.441619e-01 1.034305e+00
1.045572e+00 9.441629e-01 1.033758e+00
1.046456e+00 9.441879e-01 1.033273e+00
1.047356e+00 9.442259e-01 1.032770e+00
1.072035e+00 9.965749e-01 9.952299e-01
1.007526e+00 1.071641e+00 9.788459e-01
9.752129e-01 1.030262e+00 1.025269e+00
1.008503e+00 1.086413e+00 9.733199e-01
1.004140e+00 1.086408e+00 9.793429e-01
1.058572e+00 1.005565e+00 1.028449e+00
1.057898e+00 1.005593e+00 1.029225e+00
9.639709e-01 1.056897e+00 9.614539e-01
1.056507e+00 9.977109e-01 1.034209e+00
9.829189e-01 9.990179e-01 9.687489e-01
9.809249e-01 9.989809e-01 9.691299e-01
9.739289e-01 9.989439e-01 9.692469e-01
9.729199e-01 9.989459e-01 9.692169e-01
9.679759e-01 9.988239e-01 9.706539e-01
9.670169e-01 9.987719e-01 9.715919e-01
9.659539e-01 9.987189e-01 9.720519e-01
9.774789e-01 1.056919e+00 1.002137e+00
1.028597e+00 9.420909e-01 1.037433e+00
9.410339e-01 1.004215e+00 9.914479e-01
9.666949e-01 1.034489e+00 1.030538e+00
9.478089e-01 1.032875e+00 9.849809e-01
9.484279e-01 1.014356e+00 1.032576e+00
9.719089e-01 1.000373e+00 9.693839e-01
9.598669e-01 1.024232e+00 9.821929e-01
9.698759e-01 1.000358e+00 9.697129e-01
9.782339e-01 1.025871e+00 1.020800e+00
9.659509e-01 1.053030e+00 1.027814e+00
1.011174e+00 1.087895e+00 9.701339e-01
9.782799e-01 1.031610e+00 1.020953e+00
9.717239e-01 1.030304e+00 1.029026e+00
1.026556e+00 1.034832e+00 1.015030e+00
1.015550e+00 1.034178e+00 1.011051e+00
1.057014e+00 1.018640e+00 1.021904e+00
9.926589e-01 1.067021e+00 9.768409e-01
9.732849e-01 9.407849e-01 1.037542e+00
9.744479e-01 9.408499e-01 1.037496e+00
9.754939e-01 9.408649e-01 1.037349e+00
9.765949e-01 9.409149e-01 1.037225e+00
9.776479e-01 9.409449e-01 1.037046e+00
9.786659e-01 9.409999e-01 1.036742e+00
9.796919e-01 9.410539e-01 1.036463e+00
9.807119e-01 9.411039e-01 1.036179e+00
9.816859e-01 9.411309e-01 1.035858e+00
9.826909e-01 9.411939e-01 1.035528e+00
9.835659e-01 9.411669e-01 1.035098e+00
9.836609e-01 1.034224e+00 1.002434e+00
1.022366e+00 1.001650e+00 9.604559e-01
9.612889e-01 1.060055e+00 9.983379e-01
1.054439e+00 1.021903e+00 1.020934e+00
9.869349e-01 9.990759e-01 9.680529e-01
9.961499e-01 1.030311e+00 9.952689e-01
9.971299e-01 1.030141e+00 9.956349e-01
1.056307e+00 1.022844e+00 1.017350e+00
9.595939e-01 1.069471e+00 9.715669e-01
1.002542e+00 9.435509e-01 1.045301e+00
1.003705e+00 9.436359e-01 1.045114e+00
1.004746e+00 9.436779e-01 1.044915e+00
1.005779e+00 9.437399e-01 1.044652e+00
1.006759e+00 9.437579e-01 1.044340e+00
1.007782e+00 9.438079e-01 1.044049e+00
1.008743e+00 9.438459e-01 1.043660e+00
1.009647e+00 9.438599e-01 1.043236e+00
1.010608e+00 9.438939e-01 1.042863e+00
1.011570e+00 9.439239e-01 1.042516e+00
1.012589e+00 9.439749e-01 1.042222e+00
1.013573e+00 9.440069e-01 1.041925e+00
1.014525e+00 9.440479e-01 1.041525e+00
1.015484e+00 9.440769e-01 1.041155e+00
1.016440e+00 9.441139e-01 1.040792e+00
1.017472e+00 9.441629e-01 1.040538e+00
1.018488e+00 9.442119e-01 1.040235e+00
1.019456e+00 9.442459e-01 1.039891e+00
1.020482e+00 9.442949e-01 1.039614e+00
1.021518e+00 9.443439e-01 1.039373e+00
1.022533e+00 9.443929e-01 1.039062e+00
1.023508e+00 9.444239e-01 1.038736e+00
1.024530e+00 9.444749e-01 1.038454e+00
1.025497e+00 9.445099e-01 1.038109e+00
1.026518e+00 9.445579e-01 1.037828e+00
1.027551e+00 9.446059e-01 1.037589e+00
1.028635e+00 9.446709e-01 1.037390e+00
1.029660e+00 9.447199e-01 1.037126e+00
1.030753e+00 9.447809e-01 1.036949e+00
1.031904e+00 9.448579e-01 1.036804e+00
1.033005e+00 9.449209e-01 1.036681e+00
1.034163e+00 9.449969e-01 1.036556e+00
1.035258e+00 9.450599e-01 1.036385e+00
1.036358e+00 9.451229e-01 1.036244e+00
1.037515e+00 9.452009e-01 1.036131e+00
1.038614e+00 9.452649e-01 1.035969e+00
1.039708e+00 9.453259e-01 1.035810e+00
1.040804e+00 9.453909e-01 1.035634e+00
1.041846e+00 9.454339e-01 1.035439e+00
1.042929e+00 9.455029e-01 1.035206e+00
1.043953e+00 9.455529e-01 1.034930e+00
1.044903e+00 9.455879e-01 1.034549e+00
1.045758e+00 9.455849e-01 1.034042e+00
1.046594e+00 9.455839e-01 1.033492e+00
1.047461e+00 9.456129e-01 1.032983e+00
1.048303e+00 9.456139e-01 1.032455e+00
1.048939e+00 9.455669e-01 1.031596e+00
1.049642e+00 9.455339e-01 1.030842e+00
1.050273e+00 9.454859e-01 1.029976e+00
1.049725e+00 9.976699e-01 1.038494e+00
1.012086e+00 1.084930e+00 9.696789e-01
1.057406e+00 1.001679e+00 1.032010e+00
1.044943e+00 1.006838e+00 1.036823e+00
9.391329e-01 1.042531e+00 9.972529e-01
1.052953e+00 9.450589e-01 1.023291e+00
1.053539e+00 9.450609e-01 1.022404e+00
9.659549e-01 9.915519e-01 9.713909e-01
9.508649e-01 1.028548e+00 9.834129e-01
9.859349e-01 9.976429e-01 9.679139e-01
9.629479e-01 9.914979e-01 9.719789e-01
9.648229e-01 1.015883e+00 9.760309e-01
1.071750e+00 9.909339e-01 9.922419e-01
9.965959e-01 1.058655e+00 9.873389e-01
9.371959e-01 1.044067e+00 1.018234e+00
9.726719e-01 1.033096e+00 1.026898e+00
9.708919e-01 9.989379e-01 9.693139e-01
9.719099e-01 9.989459e-01 9.692189e-01
9.698979e-01 9.989189e-01 9.695019e-01
9.689119e-01 9.988759e-01 9.699419e-01
9.635579e-01 1.071515e+00 9.304609e-01
1.026894e+00 1.010693e+00 9.694029e-01
9.797119e-01 1.054985e+00 9.865969e-01
9.879199e-01 1.000508e+00 9.683789e-01
9.799289e-01 1.000421e+00 9.690399e-01
9.779279e-01 1.000420e+00 9.689069e-01
1.055687e+00 1.014870e+00 1.026036e+00
9.504659e-01 1.057571e+00 9.791629e-01
9.717979e-01 1.047204e+00 1.020329e+00
9.690939e-01 1.048669e+00 1.023501e+00
9.459019e-01 1.056314e+00 1.023858e+00
9.592469e-01 1.037417e+00 1.037356e+00
9.906239e-01 1.032052e+00 9.932139e-01
9.711509e-01 9.420199e-01 1.038023e+00
9.723179e-01 9.420969e-01 1.037986e+00
9.734889e-01 9.421669e-01 1.037982e+00
9.745399e-01 9.422089e-01 1.037814e+00
9.756499e-01 9.423209e-01 1.037628e+00
9.766409e-01 9.423189e-01 1.037309e+00
9.775989e-01 9.423519e-01 1.036931e+00
9.786219e-01 9.423979e-01 1.036630e+00
9.796639e-01 9.424469e-01 1.036402e+00
9.807399e-01 9.424919e-01 1.036163e+00
9.816389e-01 9.425299e-01 1.035740e+00
9.827309e-01 9.425929e-01 1.035567e+00
9.836429e-01 9.426149e-01 1.035165e+00
9.434209e-01 1.008162e+00 9.884299e-01
9.375819e-01 1.042708e+00 1.029219e+00
9.755299e-01 1.038680e+00 1.020465e+00
9.749169e-01 1.038693e+00 1.021341e+00
9.411999e-01 1.016836e+00 1.021816e+00
1.054889e+00 1.014895e+00 1.026637e+00
1.056969e+00 1.022067e+00 1.017596e+00
9.441469e-01 1.058508e+00 1.015710e+00
1.001288e+00 9.448619e-01 1.045194e+00
1.002525e+00 9.449519e-01 1.045238e+00
1.003695e+00 9.450259e-01 1.045178e+00
1.004796e+00 9.450919e-01 1.044996e+00
1.005773e+00 9.451239e-01 1.044659e+00
1.006737e+00 9.451549e-01 1.044308e+00
1.007712e+00 9.451889e-01 1.043973e+00
1.008727e+00 9.452379e-01 1.043668e+00
1.009697e+00 9.452689e-01 1.043320e+00
1.010610e+00 9.452879e-01 1.042911e+00
1.011612e+00 9.453369e-01 1.042567e+00
1.012575e+00 9.453709e-01 1.042213e+00
1.013545e+00 9.454099e-01 1.041877e+00
1.014519e+00 9.454409e-01 1.041551e+00
1.015525e+00 9.454879e-01 1.041215e+00
1.016500e+00 9.455219e-01 1.040898e+00
1.017518e+00 9.455709e-01 1.040606e+00
1.018483e+00 9.456059e-01 1.040260e+00
1.019502e+00 9.456549e-01 1.039959e+00
1.020476e+00 9.456909e-01 1.039638e+00
1.021500e+00 9.457379e-01 1.039354e+00
1.022517e+00 9.457829e-01 1.039041e+00
1.023483e+00 9.458169e-01 1.038708e+00
1.024511e+00 9.458659e-01 1.038438e+00
1.025478e+00 9.458979e-01 1.038081e+00
1.026544e+00 9.459539e-01 1.037815e+00
1.027582e+00 9.460069e-01 1.037593e+00
9.759669e-01 1.028828e+00 1.024602e+00
1.010969e+00 1.074580e+00 9.750379e-01
1.002380e+00 1.073075e+00 9.801939e-01
9.706469e-01 1.050113e+00 1.022246e+00
1.051519e+00 9.976949e-01 1.037556e+00
1.046470e+00 1.024105e+00 1.025012e+00
1.064179e+00 9.903079e-01 9.753379e-01
1.036342e+00 9.465039e-01 1.036240e+00
1.037503e+00 9.465789e-01 1.036139e+00
1.038603e+00 9.466449e-01 1.036014e+00
1.039760e+00 9.467179e-01 1.035889e+00
1.040855e+00 9.467809e-01 1.035717e+00
1.041958e+00 9.468439e-01 1.035592e+00
1.043039e+00 9.469049e-01 1.035364e+00
1.044066e+00 9.469559e-01 1.035097e+00
1.045030e+00 9.469879e-01 1.034748e+00
1.045880e+00 9.469929e-01 1.034234e+00
1.046743e+00 9.470109e-01 1.033710e+00
1.047531e+00 9.469989e-01 1.033100e+00
1.048374e+00 9.470019e-01 1.032559e+00
1.049193e+00 9.470089e-01 1.031997e+00
1.049943e+00 9.469959e-01 1.031305e+00
1.050635e+00 9.469699e-01 1.030540e+00
1.051269e+00 9.469259e-01 1.029689e+00
1.051815e+00 9.468749e-01 1.028717e+00
1.053337e+00 1.004250e+00 1.033151e+00
1.063937e+00 1.000249e+00 1.025635e+00
1.067147e+00 1.001411e+00 1.019725e+00
1.053680e+00 9.465999e-01 1.024369e+00
1.054221e+00 9.465569e-01 1.023399e+00
1.054822e+00 9.464639e-01 1.022470e+00
1.055504e+00 9.464469e-01 1.021703e+00
1.056215e+00 9.464009e-01 1.020963e+00
9.619589e-01 9.914899e-01 9.720229e-01
1.007234e+00 1.064427e+00 9.854869e-01
1.013979e+00 1.079024e+00 9.706319e-01
1.047546e+00 1.004269e+00 1.037098e+00
9.719399e-01 1.033108e+00 1.027587e+00
9.606149e-01 1.020486e+00 1.039322e+00
9.889329e-01 9.976859e-01 9.675179e-01
9.879369e-01 9.976699e-01 9.676629e-01
9.739399e-01 9.975169e-01 9.690789e-01
9.749429e-01 9.975139e-01 9.691309e-01
9.628999e-01 9.987029e-01 9.724179e-01
9.579349e-01 9.985149e-01 9.746819e-01
9.589069e-01 9.985379e-01 9.743819e-01
9.639249e-01 9.987119e-01 9.722169e-01
9.649299e-01 9.987209e-01 9.721119e-01
9.769339e-01 9.989589e-01 9.692409e-01
9.779339e-01 9.989629e-01 9.691639e-01
9.899229e-01 1.000539e+00 9.680069e-01
9.966079e-01 1.072991e+00 9.741209e-01
9.706599e-01 1.048674e+00 1.022259e+00
9.699299e-01 1.048681e+00 1.022980e+00
9.619669e-01 1.048717e+00 1.030805e+00
1.051039e+00 1.022806e+00 1.022812e+00
9.989329e-01 1.062912e+00 9.910439e-01
9.853369e-01 1.055452e+00 9.958919e-01
1.059406e+00 1.018469e+00 1.018525e+00
9.711969e-01 9.434219e-01 1.038197e+00
9.724419e-01 9.435129e-01 1.038241e+00
9.735509e-01 9.435799e-01 1.038124e+00
9.745299e-01 9.436199e-01 1.037834e+00
9.754969e-01 9.436529e-01 1.037479e+00
9.764419e-01 9.436799e-01 1.037059e+00
9.774019e-01 9.437119e-01 1.036694e+00
9.783639e-01 9.437449e-01 1.036329e+00
9.794499e-01 9.438009e-01 1.036113e+00
9.804839e-01 9.438499e-01 1.035868e+00
9.814989e-01 9.438919e-01 1.035555e+00
9.824649e-01 9.439309e-01 1.035207e+00
9.834379e-01 9.439709e-01 1.034892e+00
9.843939e-01 9.440009e-01 1.034514e+00
9.558279e-01 1.034456e+00 9.821609e-01
1.000975e+00 1.078989e+00 9.799659e-01
1.004844e+00 1.080477e+00 9.767789e-01
1.011253e+00 1.080483e+00 9.719659e-01
9.943869e-01 1.070104e+00 9.862079e-01
9.903119e-01 1.071572e+00 9.908549e-01
1.027999e+00 1.004613e+00 1.039568e+00
1.001212e+00 9.462299e-01 1.045035e+00
1.002435e+00 9.463299e-01 1.045124e+00
1.003674e+00 9.464179e-01 1.045123e+00
1.004727e+00 9.464649e-01 1.044931e+00
1.005750e+00 9.465169e-01 1.044644e+00
1.006719e+00 9.465479e-01 1.044290e+00
1.007741e+00 9.465949e-01 1.043997e+00
1.008712e+00 9.466309e-01 1.043660e+00
1.009682e+00 9.466669e-01 1.043312e+00
1.010649e+00 9.467009e-01 1.042954e+00
1.011609e+00 9.467359e-01 1.042594e+00
1.012566e+00 9.467669e-01 1.042212e+00
1.013520e+00 9.467959e-01 1.041835e+00
1.014494e+00 9.468379e-01 1.041505e+00
1.015455e+00 9.468749e-01 1.041148e+00
1.016478e+00 9.469199e-01 1.040865e+00
1.017500e+00 9.469659e-01 1.040587e+00
1.018471e+00 9.469969e-01 1.040244e+00
1.019486e+00 9.470459e-01 1.039939e+00
1.020448e+00 9.470829e-01 1.039584e+00
1.021415e+00 9.471179e-01 1.039224e+00
1.022435e+00 9.471579e-01 1.038934e+00
1.023403e+00 9.471979e-01 1.038605e+00
1.024371e+00 9.472289e-01 1.038264e+00
1.025375e+00 9.472639e-01 1.037918e+00
9.651499e-01 1.063205e+00 9.584619e-01
9.711879e-01 1.027481e+00 1.030001e+00
9.726569e-01 1.027421e+00 1.028619e+00
9.871919e-01 1.056920e+00 9.950809e-01
9.914079e-01 1.074557e+00 9.907249e-01
9.704569e-01 1.028909e+00 1.030701e+00
9.740479e-01 1.027454e+00 1.027114e+00
9.977819e-01 1.079000e+00 9.841599e-01
9.629599e-01 1.015698e+00 1.028478e+00
1.056396e+00 1.017530e+00 1.023538e+00
1.037352e+00 9.479269e-01 1.035921e+00
1.038513e+00 9.480039e-01 1.035836e+00
1.039610e+00 9.480659e-01 1.035681e+00
1.040767e+00 9.481409e-01 1.035571e+00
1.041872e+00 9.482069e-01 1.035467e+00
1.043019e+00 9.482739e-01 1.035317e+00
1.044044e+00 9.483239e-01 1.035068e+00
1.044963e+00 9.483499e-01 1.034671e+00
1.045907e+00 9.483809e-01 1.034270e+00
1.046749e+00 9.483859e-01 1.033738e+00
1.047582e+00 9.483909e-01 1.033187e+00
1.048416e+00 9.483989e-01 1.032638e+00
1.049247e+00 9.484009e-01 1.032075e+00
1.050091e+00 9.484169e-01 1.031541e+00
1.050829e+00 9.484139e-01 1.030889e+00
1.051519e+00 9.483659e-01 1.030070e+00
1.052094e+00 9.483339e-01 1.029164e+00
1.052677e+00 9.482759e-01 1.028227e+00
1.053201e+00 9.482389e-01 1.027246e+00
1.053799e+00 9.481619e-01 1.026315e+00
1.054332e+00 9.481239e-01 1.025342e+00
1.054847e+00 9.480379e-01 1.024299e+00
1.055431e+00 9.480269e-01 1.023411e+00
1.056036e+00 9.479389e-01 1.022489e+00
1.056675e+00 9.478839e-01 1.021647e+00
1.057401e+00 9.479019e-01 1.020951e+00
9.690139e-01 1.035923e+00 1.028630e+00
9.616199e-01 1.017192e+00 1.030076e+00
9.489739e-01 1.061709e+00 9.731389e-01
9.585959e-01 1.037439e+00 1.038160e+00
1.072129e+00 9.951809e-01 1.005210e+00
9.628609e-01 1.014366e+00 9.766129e-01
9.538859e-01 1.008404e+00 9.788149e-01
9.588459e-01 1.018502e+00 9.807769e-01
9.936289e-01 1.071491e+00 9.752989e-01
9.939279e-01 9.977519e-01 9.669739e-01
9.949209e-01 9.977689e-01 9.668409e-01
9.929289e-01 9.977389e-01 9.670919e-01
9.919329e-01 9.977259e-01 9.671299e-01
9.759399e-01 9.975069e-01 9.693139e-01
9.729339e-01 9.975179e-01 9.690059e-01
9.719299e-01 9.975149e-01 9.690209e-01
9.789299e-01 9.989679e-01 9.691289e-01
9.749329e-01 9.989449e-01 9.692659e-01
9.364909e-01 1.017575e+00 1.009254e+00
9.688819e-01 1.000324e+00 9.700149e-01
9.849219e-01 9.990629e-01 9.682489e-01
1.067011e+00 9.987869e-01 1.021295e+00
9.612979e-01 1.048732e+00 1.031591e+00
9.793569e-01 1.031568e+00 1.018844e+00
9.721519e-01 1.035912e+00 1.026147e+00
1.004885e+00 1.078992e+00 9.768189e-01
1.004077e+00 1.078992e+00 9.774039e-01
1.007353e+00 1.078995e+00 9.751089e-01
9.753399e-01 1.025976e+00 1.025428e+00
1.038702e+00 1.027950e+00 1.024296e+00
9.691799e-01 1.054434e+00 1.023656e+00
9.733259e-01 9.449519e-01 1.037852e+00
9.744189e-01 9.449939e-01 1.037621e+00
9.753959e-01 9.450379e-01 1.037314e+00
9.762979e-01 9.450639e-01 1.036877e+00
9.771969e-01 9.450819e-01 1.036420e+00
9.781399e-01 9.451069e-01 1.036013e+00
9.791649e-01 9.451389e-01 1.035708e+00
9.802119e-01 9.452089e-01 1.035511e+00
9.812879e-01 9.452569e-01 1.035275e+00
9.821959e-01 9.452869e-01 1.034865e+00
9.832149e-01 9.453259e-01 1.034560e+00
1.071298e+00 1.000755e+00 1.001215e+00
1.070168e+00 1.000681e+00 1.013201e+00
9.979679e-01 1.070123e+00 9.843529e-01
1.005620e+00 1.080477e+00 9.761339e-01
1.012063e+00 1.080476e+00 9.713909e-01
9.927149e-01 1.070084e+00 9.873059e-01
9.835269e-01 1.061349e+00 9.969139e-01
9.745279e-01 1.030273e+00 1.026041e+00
9.778579e-01 1.034438e+00 1.020316e+00
1.002218e+00 9.476759e-01 1.044766e+00
1.003457e+00 9.477769e-01 1.044846e+00
1.004618e+00 9.478359e-01 1.044714e+00
1.005655e+00 9.478939e-01 1.044512e+00
1.006641e+00 9.479369e-01 1.044195e+00
1.007658e+00 9.479769e-01 1.043885e+00
1.008627e+00 9.480129e-01 1.043534e+00
1.009589e+00 9.480449e-01 1.043171e+00
1.010562e+00 9.480839e-01 1.042830e+00
1.011464e+00 9.481129e-01 1.042396e+00
9.793979e-01 1.034362e+00 1.017263e+00
9.802579e-01 1.034291e+00 1.014982e+00
1.065625e+00 9.890309e-01 9.772859e-01
9.398709e-01 1.007102e+00 1.014423e+00
9.785569e-01 1.035787e+00 1.017811e+00
9.780749e-01 1.035811e+00 1.018891e+00
9.704959e-01 1.047216e+00 1.021982e+00
9.746119e-01 1.058338e+00 1.003271e+00
1.066128e+00 9.975179e-01 1.023567e+00
9.603599e-01 1.024839e+00 1.042501e+00
1.010889e+00 1.065895e+00 9.820079e-01
1.002837e+00 1.071624e+00 9.808559e-01
1.051151e+00 1.020122e+00 1.024739e+00
1.053216e+00 9.977009e-01 1.036486e+00
9.750919e-01 1.056933e+00 1.003937e+00
1.000344e+00 1.074536e+00 9.807719e-01
9.949829e-01 1.074525e+00 9.853139e-01
9.932499e-01 1.074548e+00 9.881179e-01
1.007983e+00 1.090870e+00 9.744239e-01
1.050631e+00 9.976899e-01 1.038045e+00
9.335179e-01 1.024994e+00 1.030338e+00
9.995869e-01 1.078976e+00 9.814569e-01
9.994249e-01 1.077501e+00 9.812269e-01
1.010070e+00 1.074571e+00 9.754949e-01
1.037225e+00 9.492639e-01 1.035806e+00
1.038252e+00 9.493129e-01 1.035531e+00
1.039335e+00 9.493829e-01 1.035328e+00
1.040430e+00 9.494469e-01 1.035160e+00
1.041585e+00 9.495249e-01 1.035051e+00
1.042734e+00 9.495969e-01 1.034929e+00
1.043823e+00 9.496549e-01 1.034746e+00
1.044806e+00 9.496949e-01 1.034444e+00
1.045755e+00 9.497229e-01 1.034053e+00
1.046642e+00 9.497379e-01 1.033576e+00
1.047529e+00 9.497579e-01 1.033105e+00
1.048343e+00 9.497639e-01 1.032542e+00
1.049146e+00 9.497549e-01 1.031944e+00
1.049968e+00 9.497399e-01 1.031402e+00
1.050763e+00 9.497539e-01 1.030752e+00
1.051546e+00 9.497579e-01 1.030129e+00
1.052262e+00 9.497289e-01 1.029395e+00
1.052955e+00 9.497019e-01 1.028633e+00
1.053630e+00 9.496819e-01 1.027856e+00
1.054301e+00 9.496649e-01 1.027079e+00
1.054896e+00 9.495889e-01 1.026150e+00
1.055462e+00 9.495299e-01 1.025193e+00
1.056021e+00 9.495339e-01 1.024290e+00
1.056539e+00 9.494469e-01 1.023249e+00
1.057179e+00 9.493949e-01 1.022404e+00
1.057877e+00 9.493629e-01 1.021656e+00
9.739559e-01 1.034502e+00 1.025239e+00
9.743869e-01 1.031695e+00 1.025830e+00
9.599179e-01 1.043057e+00 1.034874e+00
9.605299e-01 1.043044e+00 1.033997e+00
9.941519e-01 1.076023e+00 9.876609e-01
1.054247e+00 1.004282e+00 1.032705e+00
9.628749e-01 1.008730e+00 9.738349e-01
9.916469e-01 1.067005e+00 9.770649e-01
1.068075e+00 9.499789e-01 1.020655e+00
9.559499e-01 9.912889e-01 9.744349e-01
9.539589e-01 9.912199e-01 9.752269e-01
9.679639e-01 9.916419e-01 9.702649e-01
9.433899e-01 9.815639e-01 1.005340e+00
9.637869e-01 1.031539e+00 9.824979e-01
9.749619e-01 9.917269e-01 9.694219e-01
9.548559e-01 1.008457e+00 9.783829e-01
9.959179e-01 9.977909e-01 9.665899e-01
9.969299e-01 9.978239e-01 9.663219e-01
9.759349e-01 9.989389e-01 9.693749e-01
9.799289e-01 9.989729e-01 9.691389e-01
9.839229e-01 9.990479e-01 9.683849e-01
9.609549e-01 9.971939e-01 9.730619e-01
1.060510e+00 9.977159e-01 1.031207e+00
1.045498e+00 1.024067e+00 1.025350e+00
9.754519e-01 1.058353e+00 1.002735e+00
9.610669e-01 1.030423e+00 1.040012e+00
9.596499e-01 1.030450e+00 1.041478e+00
1.005700e+00 1.078990e+00 9.762359e-01
1.008186e+00 1.079000e+00 9.745549e-01
9.897069e-01 1.071579e+00 9.917469e-01
9.804789e-01 1.059833e+00 9.994699e-01
1.014779e+00 1.084911e+00 9.665699e-01
1.025550e+00 1.010119e+00 1.035106e+00
1.007001e+00 1.076035e+00 9.763359e-01
9.750999e-01 9.463899e-01 1.036893e+00
9.761389e-01 9.464369e-01 1.036643e+00
9.770299e-01 9.464509e-01 1.036170e+00
9.779309e-01 9.464759e-01 1.035721e+00
9.694089e-01 1.026051e+00 1.030913e+00
9.640709e-01 1.015733e+00 1.028329e+00
9.712939e-01 1.054374e+00 1.019694e+00
9.707929e-01 1.054386e+00 1.020698e+00
9.830629e-01 9.466969e-01 1.034330e+00
9.708299e-01 1.042934e+00 1.022436e+00
9.322199e-01 1.026259e+00 1.011335e+00
9.970559e-01 1.070099e+00 9.847839e-01
1.006401e+00 1.080483e+00 9.755009e-01
9.555869e-01 1.033220e+00 1.042662e+00
1.012865e+00 1.080464e+00 9.707989e-01
9.905269e-01 1.070090e+00 9.894239e-01
9.849809e-01 1.061306e+00 9.971939e-01
9.870679e-01 1.061371e+00 9.967399e-01
1.071862e+00 9.965529e-01 9.942389e-01
9.833949e-01 1.058410e+00 9.984199e-01
9.782969e-01 1.027295e+00 1.020832e+00
1.005435e+00 9.492519e-01 1.044196e+00
1.006473e+00 9.493019e-01 1.043946e+00
1.007457e+00 9.493369e-01 1.043615e+00
1.008413e+00 9.493759e-01 1.043240e+00
1.065826e+00 1.008063e+00 1.017807e+00
9.614349e-01 1.047300e+00 1.031792e+00
9.337039e-01 1.024992e+00 1.031345e+00
9.743829e-01 1.024559e+00 1.025781e+00
1.072423e+00 9.937949e-01 1.002218e+00
9.371599e-01 1.016687e+00 1.004392e+00
9.670379e-01 1.023113e+00 1.030963e+00
9.842629e-01 1.059875e+00 9.979329e-01
1.070198e+00 9.922269e-01 1.017206e+00
9.689549e-01 1.047222e+00 1.023295e+00
1.067692e+00 1.001904e+00 9.862589e-01
1.048827e+00 1.002964e+00 1.037187e+00
1.013856e+00 1.086387e+00 9.670089e-01
1.065482e+00 1.013184e+00 1.009226e+00
9.729129e-01 1.049470e+00 1.016469e+00
9.766349e-01 1.043356e+00 9.944659e-01
9.745349e-01 1.056939e+00 1.004898e+00
1.004685e+00 1.074547e+00 9.782549e-01
1.010513e+00 1.089371e+00 9.709739e-01
9.403799e-01 1.005611e+00 9.944659e-01
9.723959e-01 1.021675e+00 1.026389e+00
1.008562e+00 1.090774e+00 9.736509e-01
9.935399e-01 1.076030e+00 9.885399e-01
9.568459e-01 1.040267e+00 1.039216e+00
9.673679e-01 1.054457e+00 1.026354e+00
9.719249e-01 1.028895e+00 1.029324e+00
1.037134e+00 9.508789e-01 1.037401e+00
1.037714e+00 9.507769e-01 1.036475e+00
1.038454e+00 9.507119e-01 1.035822e+00
1.039360e+00 9.507249e-01 1.035399e+00
1.040366e+00 9.507919e-01 1.035087e+00
1.041392e+00 9.508489e-01 1.034810e+00
1.042477e+00 9.509189e-01 1.034613e+00
1.043498e+00 9.509689e-01 1.034320e+00
1.044511e+00 9.510179e-01 1.034016e+00
1.045465e+00 9.510429e-01 1.033637e+00
1.046362e+00 9.510619e-01 1.033181e+00
1.047331e+00 9.510969e-01 1.032835e+00
1.048174e+00 9.511049e-01 1.032297e+00
1.049003e+00 9.511079e-01 1.031737e+00
1.049819e+00 9.511099e-01 1.031157e+00
1.050633e+00 9.511149e-01 1.030574e+00
1.051463e+00 9.511179e-01 1.030021e+00
1.052311e+00 9.511219e-01 1.029486e+00
1.053108e+00 9.511289e-01 1.028880e+00
1.053874e+00 9.511169e-01 1.028232e+00
1.054619e+00 9.511169e-01 1.027553e+00
1.055323e+00 9.510849e-01 1.026805e+00
1.055947e+00 9.510459e-01 1.025946e+00
1.056510e+00 9.509889e-01 1.024993e+00
1.057021e+00 9.509059e-01 1.023948e+00
1.057625e+00 9.508829e-01 1.023074e+00
1.058319e+00 9.508559e-01 1.022317e+00
1.059144e+00 9.508589e-01 1.021756e+00
9.709959e-01 1.026048e+00 1.029705e+00
9.676609e-01 1.040083e+00 1.026674e+00
9.667639e-01 1.040072e+00 1.027130e+00
9.661269e-01 1.027438e+00 1.033215e+00
1.046990e+00 1.010782e+00 1.032764e+00
1.066865e+00 9.514709e-01 1.022440e+00
1.067964e+00 9.515219e-01 1.022287e+00
1.068872e+00 9.515159e-01 1.021853e+00
1.069702e+00 9.515229e-01 1.021277e+00
1.070516e+00 9.515469e-01 1.020689e+00
1.071276e+00 9.515389e-01 1.020025e+00
1.072037e+00 9.515229e-01 1.019368e+00
1.072808e+00 9.514979e-01 1.018716e+00
1.073620e+00 9.515229e-01 1.018136e+00
1.074384e+00 9.515059e-01 1.017478e+00
1.075077e+00 9.514819e-01 1.016716e+00
1.075718e+00 9.514239e-01 1.015870e+00
1.076357e+00 9.513659e-01 1.015019e+00
1.077159e+00 9.514589e-01 1.014358e+00
1.077639e+00 9.513419e-01 1.013369e+00
1.078140e+00 9.512629e-01 1.012315e+00
1.078609e+00 9.512199e-01 1.011244e+00
9.914079e-01 1.071560e+00 9.889089e-01
9.418319e-01 1.012450e+00 1.013416e+00
1.019246e+00 1.007117e+00 1.034797e+00
9.724489e-01 1.054346e+00 1.017760e+00
9.581059e-01 1.030434e+00 1.042770e+00
1.011565e+00 1.073125e+00 9.758999e-01
1.009019e+00 1.079004e+00 9.740009e-01
1.047823e+00 1.010800e+00 1.032216e+00
1.015119e+00 1.077567e+00 9.705199e-01
9.812499e-01 1.059848e+00 9.988499e-01
1.006937e+00 1.073099e+00 9.779939e-01
9.637919e-01 1.044360e+00 1.028115e+00
1.048526e+00 1.010797e+00 1.031456e+00
9.747299e-01 9.477429e-01 1.036382e+00
9.756919e-01 9.477529e-01 1.035994e+00
9.766519e-01 9.477719e-01 1.035617e+00
9.776309e-01 9.478239e-01 1.035294e+00
1.049280e+00 1.010795e+00 1.030801e+00
1.004173e+00 1.073078e+00 9.792679e-01
9.712669e-01 1.052917e+00 1.019689e+00
9.678259e-01 1.027454e+00 1.032142e+00
9.828289e-01 9.480469e-01 1.034008e+00
1.051312e+00 1.010832e+00 1.030214e+00
9.632739e-01 1.051568e+00 1.029199e+00
9.795699e-01 1.061288e+00 9.999319e-01
9.961519e-01 1.070086e+00 9.852339e-01
1.009655e+00 1.080474e+00 9.731759e-01
1.015738e+00 1.080506e+00 9.679019e-01
1.015065e+00 1.080472e+00 9.687239e-01
9.783639e-01 1.055468e+00 1.001636e+00
9.647369e-01 1.064767e+00 9.534499e-01
9.983869e-01 1.061425e+00 9.902409e-01
1.054863e+00 1.001653e+00 1.033595e+00
9.633639e-01 1.050140e+00 1.029327e+00
1.052270e+00 1.010852e+00 1.029835e+00
1.053214e+00 1.010852e+00 1.029440e+00
1.054114e+00 1.010870e+00 1.029008e+00
1.008058e+00 9.507179e-01 1.042727e+00
1.054964e+00 1.010895e+00 1.028487e+00
1.055786e+00 1.010900e+00 1.027924e+00
9.633879e-01 1.048706e+00 1.029349e+00
9.661069e-01 1.055868e+00 1.026291e+00
9.713819e-01 1.055816e+00 1.019803e+00
9.409549e-01 1.006939e+00 9.934509e-01
9.791229e-01 1.055459e+00 1.000977e+00
9.798729e-01 1.055453e+00 1.000304e+00
9.994219e-01 1.076014e+00 9.812109e-01
1.014766e+00 1.068880e+00 9.770859e-01
1.068132e+00 1.001951e+00 9.872309e-01
9.929159e-01 1.076039e+00 9.894129e-01
9.697239e-01 1.047222e+00 1.022641e+00
1.008580e+00 1.087897e+00 9.734279e-01
1.012416e+00 1.087879e+00 9.684499e-01
1.013663e+00 1.074605e+00 9.736779e-01
1.009175e+00 1.074569e+00 9.759579e-01
1.006896e+00 1.089348e+00 9.763169e-01
1.011097e+00 1.089359e+00 9.700829e-01
1.013647e+00 1.089268e+00 9.649989e-01
9.926579e-01 1.074543e+00 9.890119e-01
1.003539e+00 1.087885e+00 9.802299e-01
1.064353e+00 1.006799e+00 1.020971e+00
1.056604e+00 1.010899e+00 1.027353e+00
1.057351e+00 1.010890e+00 1.026683e+00
1.058104e+00 1.010882e+00 1.026020e+00
1.037713e+00 9.522859e-01 1.038256e+00
1.038391e+00 9.522779e-01 1.037478e+00
1.039263e+00 9.523189e-01 1.036986e+00
1.040099e+00 9.523149e-01 1.036437e+00
1.040926e+00 9.523179e-01 1.035871e+00
1.041710e+00 9.522859e-01 1.035264e+00
1.042604e+00 9.523039e-01 1.034802e+00
1.043448e+00 9.523079e-01 1.034272e+00
1.044339e+00 9.523379e-01 1.033800e+00
1.045221e+00 9.523619e-01 1.033309e+00
1.046115e+00 9.523819e-01 1.032840e+00
1.047061e+00 9.524209e-01 1.032455e+00
1.047975e+00 9.524339e-01 1.032021e+00
1.048859e+00 9.524519e-01 1.031539e+00
1.049685e+00 9.524569e-01 1.030972e+00
1.050545e+00 9.524769e-01 1.030454e+00
1.051450e+00 9.524929e-01 1.030013e+00
1.052355e+00 9.525089e-01 1.029562e+00
1.053227e+00 9.525329e-01 1.029064e+00
1.054059e+00 9.525349e-01 1.028510e+00
1.054871e+00 9.525459e-01 1.027927e+00
1.055637e+00 9.525349e-01 1.027278e+00
1.056340e+00 9.525059e-01 1.026530e+00
1.056955e+00 9.524699e-01 1.025664e+00
1.057523e+00 9.524119e-01 1.024714e+00
1.058090e+00 9.523519e-01 1.023764e+00
1.058730e+00 9.522979e-01 1.022929e+00
1.059526e+00 9.523289e-01 1.022325e+00
1.058817e+00 1.010883e+00 1.025281e+00
9.627459e-01 1.033130e+00 1.035409e+00
9.633349e-01 1.033100e+00 1.034517e+00
9.639249e-01 1.033106e+00 1.033568e+00
1.059457e+00 1.010874e+00 1.024437e+00
1.060132e+00 1.010855e+00 1.023666e+00
1.068570e+00 9.530509e-01 1.023103e+00
1.069475e+00 9.530319e-01 1.022741e+00
1.070359e+00 9.530549e-01 1.022237e+00
1.071192e+00 9.530499e-01 1.021691e+00
1.071975e+00 9.530199e-01 1.021062e+00
1.072779e+00 9.530489e-01 1.020470e+00
1.073532e+00 9.530549e-01 1.019801e+00
1.074299e+00 9.530439e-01 1.019148e+00
1.075026e+00 9.529949e-01 1.018429e+00
1.075770e+00 9.530079e-01 1.017755e+00
1.076471e+00 9.529909e-01 1.017004e+00
1.077149e+00 9.529949e-01 1.016234e+00
1.077792e+00 9.529449e-01 1.015394e+00
1.078472e+00 9.529299e-01 1.014625e+00
1.079005e+00 9.528209e-01 1.013596e+00
1.079590e+00 9.528229e-01 1.012708e+00
1.066343e+00 1.000151e+00 1.022123e+00
9.739729e-01 1.028867e+00 1.027010e+00
9.696279e-01 1.052974e+00 1.022500e+00
1.007882e+00 1.073067e+00 9.775869e-01
1.044460e+00 1.008132e+00 1.036119e+00
1.053881e+00 1.008228e+00 1.030429e+00
1.034258e+00 1.014381e+00 1.031875e+00
1.000201e+00 1.076020e+00 9.805779e-01
1.009853e+00 1.079012e+00 9.734509e-01
9.848259e-01 1.065667e+00 9.952149e-01
9.833029e-01 1.059867e+00 9.982999e-01
9.822659e-01 1.059850e+00 9.985589e-01
1.042246e+00 9.975009e-01 1.041698e+00
1.060778e+00 1.010848e+00 1.022821e+00
9.742819e-01 9.490379e-01 1.035705e+00
1.061444e+00 1.010823e+00 1.022039e+00
1.062122e+00 1.010801e+00 1.021269e+00
1.062771e+00 1.010798e+00 1.020429e+00
1.049086e+00 1.021447e+00 1.025270e+00
9.713969e-01 1.044358e+00 1.021529e+00
9.646009e-01 1.038674e+00 1.029280e+00
9.674959e-01 1.042919e+00 1.024675e+00
1.063432e+00 1.010800e+00 1.019597e+00
1.064096e+00 1.010776e+00 1.018817e+00
9.704489e-01 1.027482e+00 1.030680e+00
9.803309e-01 1.061278e+00 9.992479e-01
9.952609e-01 1.070092e+00 9.857079e-01
9.935429e-01 1.070089e+00 9.867429e-01
1.013603e+00 1.080496e+00 9.700949e-01
1.069005e+00 1.003420e+00 9.902349e-01
9.543199e-01 1.034605e+00 1.042594e+00
1.064642e+00 1.010743e+00 1.017855e+00
1.011989e+00 1.068778e+00 9.800789e-01
9.992029e-01 1.061442e+00 9.896549e-01
9.769579e-01 1.033072e+00 1.022515e+00
9.596099e-01 1.050160e+00 1.032694e+00
9.938999e-01 1.058417e+00 9.907089e-01
9.974429e-01 1.077508e+00 9.836479e-01
9.607419e-01 1.031810e+00 1.039561e+00
1.067294e+00 1.010410e+00 9.952169e-01
9.723669e-01 1.048624e+00 1.019488e+00
9.878029e-01 1.059888e+00 9.960299e-01
9.581699e-01 1.017551e+00 1.037619e+00
1.008196e+00 1.065906e+00 9.851289e-01
1.007369e+00 1.065899e+00 9.856929e-01
1.006583e+00 1.065864e+00 9.863079e-01
9.806589e-01 1.055463e+00 9.996889e-01
9.840119e-01 1.064201e+00 9.957979e-01
1.006567e+00 1.086424e+00 9.758269e-01
1.010532e+00 1.086408e+00 9.709789e-01
1.014452e+00 1.086410e+00 9.660619e-01
9.591789e-01 1.048762e+00 1.033820e+00
1.009130e+00 1.087848e+00 9.726169e-01
1.056425e+00 1.014856e+00 1.025356e+00
1.012770e+00 1.074601e+00 9.741369e-01
1.008279e+00 1.074567e+00 9.764189e-01
1.003792e+00 1.074547e+00 9.787229e-01
9.995089e-01 1.074530e+00 9.813259e-01
9.943609e-01 1.074528e+00 9.861799e-01
9.880019e-01 1.056936e+00 9.944929e-01
9.887669e-01 1.056924e+00 9.938359e-01
1.004997e+00 1.064585e+00 9.876039e-01
1.067539e+00 1.010419e+00 9.982179e-01
1.036669e+00 9.537549e-01 1.040305e+00
1.037436e+00 9.537429e-01 1.039637e+00
1.038178e+00 9.537539e-01 1.038947e+00
1.039041e+00 9.538039e-01 1.038445e+00
1.039807e+00 9.537869e-01 1.037792e+00
1.040630e+00 9.537919e-01 1.037229e+00
1.041464e+00 9.537899e-01 1.036673e+00
1.042282e+00 9.538019e-01 1.036100e+00
1.043069e+00 9.537609e-01 1.035472e+00
1.043928e+00 9.538179e-01 1.034964e+00
1.044722e+00 9.537779e-01 1.034358e+00
1.045490e+00 9.537669e-01 1.033713e+00
1.046260e+00 9.537579e-01 1.033069e+00
1.047151e+00 9.538279e-01 1.032586e+00
1.048044e+00 9.538459e-01 1.032124e+00
1.048923e+00 9.538269e-01 1.031642e+00
1.049794e+00 9.538549e-01 1.031143e+00
1.050618e+00 9.538599e-01 1.030577e+00
1.051504e+00 9.538809e-01 1.030100e+00
1.052456e+00 9.539179e-01 1.029718e+00
1.053349e+00 9.539369e-01 1.029254e+00
1.054186e+00 9.539369e-01 1.028711e+00
1.055069e+00 9.539599e-01 1.028225e+00
1.055905e+00 9.539599e-01 1.027679e+00
1.056672e+00 9.539429e-01 1.027024e+00
1.057329e+00 9.539399e-01 1.026228e+00
1.057945e+00 9.539069e-01 1.025367e+00
1.058545e+00 9.538289e-01 1.024442e+00
1.059234e+00 9.538059e-01 1.023681e+00
1.065450e+00 9.988839e-01 1.024320e+00
9.669439e-01 1.027441e+00 1.032636e+00
9.657339e-01 1.031696e+00 1.032666e+00
9.665629e-01 1.031702e+00 1.032108e+00
9.674439e-01 1.031702e+00 1.031622e+00
9.613489e-01 1.029018e+00 1.040430e+00
1.052399e+00 9.977009e-01 1.037065e+00
1.033316e+00 1.014372e+00 1.032298e+00
1.069844e+00 9.544579e-01 1.023286e+00
1.070802e+00 9.544839e-01 1.022912e+00
1.071682e+00 9.545059e-01 1.022418e+00
1.072514e+00 9.545049e-01 1.021869e+00
1.073288e+00 9.544879e-01 1.021226e+00
1.074085e+00 9.545189e-01 1.020627e+00
1.074811e+00 9.544789e-01 1.019906e+00
1.075553e+00 9.544909e-01 1.019227e+00
1.076260e+00 9.544659e-01 1.018486e+00
1.077008e+00 9.544729e-01 1.017813e+00
1.077678e+00 9.544149e-01 1.017003e+00
1.078359e+00 9.544159e-01 1.016236e+00
1.079013e+00 9.543719e-01 1.015408e+00
1.079687e+00 9.543769e-01 1.014637e+00
1.080290e+00 9.542979e-01 1.013715e+00
1.080934e+00 9.543159e-01 1.012922e+00
1.007513e+00 1.063310e+00 9.825989e-01
1.036253e+00 1.022997e+00 9.756739e-01
1.006203e+00 1.087893e+00 9.770869e-01
1.053964e+00 1.005589e+00 1.032305e+00
1.053036e+00 1.005595e+00 1.032721e+00
1.072011e+00 9.979799e-01 1.000214e+00
1.010428e+00 1.071650e+00 9.777689e-01
9.706439e-01 1.035917e+00 1.027480e+00
1.012374e+00 1.079000e+00 9.718259e-01
1.009916e+00 1.084922e+00 9.718469e-01
1.067749e+00 1.008996e+00 1.007208e+00
1.057294e+00 9.977199e-01 1.033594e+00
1.054109e+00 1.014869e+00 1.027259e+00
9.734759e-01 9.502189e-01 1.034492e+00
1.070497e+00 9.950399e-01 9.882499e-01
1.063750e+00 1.015887e+00 9.952199e-01
1.047644e+00 1.020086e+00 1.026691e+00
1.046709e+00 1.020106e+00 1.027126e+00
9.762189e-01 1.051092e+00 1.003580e+00
9.720879e-01 1.044351e+00 1.020759e+00
9.726909e-01 1.044336e+00 1.019872e+00
9.612019e-01 1.040168e+00 1.033163e+00
9.689379e-01 1.033124e+00 1.030272e+00
9.597289e-01 1.045925e+00 1.034583e+00
9.641879e-01 1.051584e+00 1.028774e+00
9.809889e-01 1.061267e+00 9.984459e-01
9.816999e-01 1.061271e+00 9.977269e-01
9.919059e-01 1.070087e+00 9.878879e-01
1.016330e+00 1.080477e+00 9.671949e-01
1.069990e+00 9.992809e-01 1.015217e+00
9.332459e-01 1.031646e+00 1.005309e+00
1.005362e+00 1.086423e+00 9.775949e-01
1.000555e+00 1.068668e+00 9.845829e-01
9.897429e-01 1.068611e+00 9.900289e-01
9.917499e-01 1.062878e+00 9.947299e-01
9.927059e-01 1.062881e+00 9.943409e-01
1.010439e+00 1.080488e+00 9.725479e-01
1.001517e+00 1.068651e+00 9.842039e-01
9.846959e-01 1.064188e+00 9.949999e-01
9.892239e-01 1.064370e+00 9.928799e-01
9.991189e-01 1.064382e+00 9.913239e-01
9.778919e-01 1.040297e+00 9.954729e-01
9.528589e-01 1.067206e+00 9.550889e-01
1.015392e+00 1.084910e+00 9.656949e-01
9.895319e-01 1.065732e+00 9.915029e-01
9.841799e-01 1.065671e+00 9.960499e-01
1.002832e+00 1.086384e+00 9.809549e-01
1.007202e+00 1.086419e+00 9.749669e-01
1.011227e+00 1.086409e+00 9.702189e-01
1.071482e+00 9.993739e-01 1.004219e+00
1.004947e+00 1.087876e+00 9.787549e-01
1.009842e+00 1.087895e+00 9.717509e-01
9.770279e-01 1.043363e+00 9.954719e-01
9.977659e-01 1.065924e+00 9.894089e-01
1.003506e+00 1.086395e+00 9.801829e-01
9.799929e-01 1.056929e+00 1.000501e+00
9.815819e-01 1.056925e+00 9.992819e-01
9.848029e-01 1.056914e+00 9.968999e-01
9.686369e-01 1.054439e+00 1.024690e+00
9.680679e-01 1.054460e+00 1.025602e+00
1.058618e+00 1.002964e+00 1.030266e+00
9.944249e-01 1.077517e+00 9.880809e-01
1.037158e+00 9.552869e-01 1.041023e+00
1.038035e+00 9.553199e-01 1.040536e+00
1.038811e+00 9.552989e-01 1.039892e+00
1.039574e+00 9.552809e-01 1.039237e+00
1.040332e+00 9.552739e-01 1.038573e+00
1.041097e+00 9.552579e-01 1.037919e+00
1.041920e+00 9.552619e-01 1.037354e+00
1.042804e+00 9.552909e-01 1.036877e+00
1.043657e+00 9.552559e-01 1.036364e+00
1.044595e+00 9.552969e-01 1.035978e+00
1.045530e+00 9.552799e-01 1.035528e+00
1.046373e+00 9.553719e-01 1.035010e+00
1.047112e+00 9.553869e-01 1.034329e+00
1.047753e+00 9.553269e-01 1.033487e+00
1.048518e+00 9.553089e-01 1.032831e+00
1.049381e+00 9.553539e-01 1.032325e+00
1.050212e+00 9.553529e-01 1.031769e+00
1.050922e+00 9.553139e-01 1.031029e+00
1.051672e+00 9.553099e-01 1.030350e+00
1.052623e+00 9.553469e-01 1.029956e+00
1.053569e+00 9.553909e-01 1.029574e+00
1.054413e+00 9.553849e-01 1.029041e+00
1.055297e+00 9.554079e-01 1.028572e+00
1.056208e+00 9.554139e-01 1.028137e+00
1.057040e+00 9.554159e-01 1.027583e+00
1.057739e+00 9.553869e-01 1.026830e+00
1.058359e+00 9.553489e-01 1.025967e+00
1.058990e+00 9.553099e-01 1.025112e+00
1.059635e+00 9.552579e-01 1.024272e+00
1.060367e+00 9.552659e-01 1.023581e+00
9.647899e-01 1.023157e+00 1.033045e+00
1.050697e+00 1.008208e+00 1.032864e+00
9.625279e-01 1.028970e+00 1.038649e+00
9.619619e-01 1.028999e+00 1.039553e+00
9.637159e-01 1.027514e+00 1.036818e+00
9.327579e-01 1.030296e+00 1.007311e+00
9.837799e-01 1.055440e+00 9.971569e-01
1.049428e+00 1.020106e+00 1.025764e+00
1.071087e+00 9.559169e-01 1.023314e+00
1.072043e+00 9.559399e-01 1.022953e+00
1.072878e+00 9.559409e-01 1.022407e+00
1.073694e+00 9.559509e-01 1.021832e+00
1.074472e+00 9.559339e-01 1.021199e+00
1.075229e+00 9.559309e-01 1.020536e+00
1.075966e+00 9.559439e-01 1.019848e+00
1.076709e+00 9.559529e-01 1.019172e+00
1.077449e+00 9.559069e-01 1.018466e+00
1.078162e+00 9.558779e-01 1.017732e+00
1.078866e+00 9.558559e-01 1.016986e+00
1.079519e+00 9.558169e-01 1.016152e+00
1.080206e+00 9.558109e-01 1.015392e+00
1.080878e+00 9.558149e-01 1.014618e+00
1.081528e+00 9.557779e-01 1.013787e+00
1.082169e+00 9.557469e-01 1.012945e+00
9.608759e-01 1.018975e+00 1.036202e+00
1.068817e+00 1.003428e+00 1.014209e+00
1.011652e+00 1.089370e+00 9.690649e-01
1.014353e+00 1.077553e+00 9.711709e-01
1.066769e+00 1.011822e+00 9.982639e-01
9.475639e-01 1.013416e+00 1.026004e+00
9.322339e-01 1.026258e+00 1.010336e+00
9.666689e-01 1.020157e+00 1.028615e+00
9.774539e-01 1.052549e+00 1.002058e+00
1.015454e+00 1.079010e+00 9.692759e-01
9.614809e-01 1.078681e+00 9.305569e-01
1.009161e+00 1.064444e+00 9.830249e-01
9.963329e-01 1.074528e+00 9.837559e-01
9.403319e-01 1.000185e+00 9.924699e-01
9.710379e-01 1.030312e+00 1.029792e+00
9.581689e-01 1.036031e+00 1.039334e+00
1.051429e+00 1.008171e+00 1.032157e+00
9.635109e-01 1.072612e+00 9.474619e-01
9.952599e-01 1.059951e+00 9.909659e-01
1.061157e+00 1.001627e+00 1.028676e+00
1.060421e+00 1.001644e+00 1.029353e+00
1.058716e+00 9.990409e-01 1.032136e+00
1.006615e+00 1.071600e+00 9.792719e-01
9.527269e-01 1.038824e+00 1.042059e+00
9.590069e-01 1.045921e+00 1.035325e+00
9.624269e-01 1.051551e+00 1.029730e+00
9.616189e-01 1.051557e+00 1.030325e+00
9.826009e-01 1.061298e+00 9.972879e-01
9.899389e-01 1.070094e+00 9.903239e-01
9.392159e-01 1.015234e+00 1.004393e+00
1.070326e+00 9.992929e-01 1.014207e+00
9.588849e-01 1.030448e+00 1.042138e+00
1.003378e+00 1.081955e+00 9.781749e-01
1.015388e+00 1.081957e+00 9.674329e-01
1.007943e+00 1.064458e+00 9.847509e-01
9.593789e-01 1.020546e+00 1.041044e+00
1.004412e+00 1.067264e+00 9.848979e-01
9.975639e-01 1.067205e+00 9.872849e-01
9.890679e-01 1.067140e+00 9.908089e-01
9.592969e-01 1.043079e+00 1.035697e+00
9.899389e-01 1.067128e+00 9.903089e-01
1.011564e+00 1.083450e+00 9.706749e-01
1.010642e+00 1.084928e+00 9.711139e-01
1.015890e+00 1.084920e+00 9.646359e-01
9.886229e-01 1.065686e+00 9.919239e-01
9.868229e-01 1.055465e+00 9.945279e-01
1.005322e+00 1.067318e+00 9.844749e-01
9.869749e-01 1.059891e+00 9.965929e-01
1.010407e+00 1.065014e+00 9.801369e-01
1.070422e+00 1.003519e+00 1.003213e+00
1.005599e+00 1.087873e+00 9.779579e-01
9.912099e-01 1.080373e+00 9.800739e-01
9.371479e-01 1.044041e+00 1.016238e+00
9.775669e-01 1.054006e+00 1.002207e+00
9.921909e-01 1.068611e+00 9.883009e-01
1.041997e+00 1.026699e+00 1.023850e+00
1.042430e+00 9.983899e-01 9.659509e-01
1.069880e+00 1.000689e+00 1.014222e+00
1.072046e+00 9.937689e-01 1.007216e+00
1.036398e+00 1.019832e+00 1.029717e+00
9.551079e-01 1.044499e+00 1.038491e+00
1.036843e+00 9.567789e-01 1.042343e+00
1.037730e+00 9.568059e-01 1.041866e+00
1.038510e+00 9.567749e-01 1.041240e+00
1.039270e+00 9.567679e-01 1.040577e+00
1.040027e+00 9.567589e-01 1.039911e+00
1.040774e+00 9.567589e-01 1.039235e+00
1.041530e+00 9.567489e-01 1.038571e+00
1.042371e+00 9.567359e-01 1.038033e+00
1.043335e+00 9.567649e-01 1.037674e+00
1.044363e+00 9.568069e-01 1.037411e+00
1.045399e+00 9.568389e-01 1.037160e+00
1.046405e+00 9.569049e-01 1.036880e+00
1.047173e+00 9.569039e-01 1.036195e+00
1.047849e+00 9.568949e-01 1.035417e+00
1.048469e+00 9.568649e-01 1.034551e+00
1.049228e+00 9.568519e-01 1.033891e+00
1.049930e+00 9.568189e-01 1.033139e+00
1.050661e+00 9.568319e-01 1.032445e+00
1.051280e+00 9.568009e-01 1.031570e+00
1.052113e+00 9.567979e-01 1.031016e+00
1.053043e+00 9.567839e-01 1.030603e+00
1.053956e+00 9.568559e-01 1.030170e+00
1.054696e+00 9.568679e-01 1.029463e+00
1.055621e+00 9.568539e-01 1.029038e+00
1.056577e+00 9.568889e-01 1.028672e+00
1.057414e+00 9.568829e-01 1.028144e+00
1.058117e+00 9.568519e-01 1.027398e+00
1.058755e+00 9.568049e-01 1.026553e+00
1.059394e+00 9.567589e-01 1.025706e+00
1.060099e+00 9.567799e-01 1.024999e+00
1.060758e+00 9.567229e-01 1.024165e+00
1.061443e+00 9.567029e-01 1.023389e+00
1.058994e+00 1.017496e+00 1.020222e+00
9.621839e-01 1.044422e+00 1.031063e+00
9.626669e-01 1.027562e+00 1.038863e+00
9.631889e-01 1.027538e+00 1.037875e+00
9.375989e-01 1.042661e+00 1.016247e+00
9.715519e-01 1.024611e+00 1.028735e+00
9.734619e-01 1.052558e+00 1.014461e+00
9.434179e-01 1.009532e+00 9.894229e-01
1.072211e+00 9.573429e-01 1.023193e+00
1.073166e+00 9.573659e-01 1.022831e+00
1.073998e+00 9.573679e-01 1.022289e+00
1.074777e+00 9.573529e-01 1.021656e+00
1.075538e+00 9.573479e-01 1.020996e+00
1.076317e+00 9.573819e-01 1.020372e+00
1.077100e+00 9.573659e-01 1.019743e+00
1.077924e+00 9.573719e-01 1.019179e+00
1.078702e+00 9.573529e-01 1.018542e+00
1.079458e+00 9.573519e-01 1.017878e+00
1.080154e+00 9.573379e-01 1.017127e+00
1.080798e+00 9.573049e-01 1.016291e+00
1.081452e+00 9.572659e-01 1.015464e+00
1.082118e+00 9.572739e-01 1.014687e+00
1.082715e+00 9.572189e-01 1.013768e+00
1.083293e+00 9.571789e-01 1.012833e+00
1.064284e+00 1.001679e+00 9.812579e-01
9.732159e-01 1.034511e+00 1.025920e+00
1.010506e+00 1.076035e+00 9.743709e-01
9.724689e-01 1.034519e+00 1.026596e+00
1.062128e+00 1.008171e+00 1.023040e+00
9.603839e-01 1.030434e+00 1.040786e+00
9.775559e-01 1.047911e+00 9.964519e-01
1.019725e+00 1.005869e+00 1.035564e+00
9.746129e-01 1.025991e+00 1.026110e+00
9.338489e-01 1.023490e+00 1.002359e+00
1.017675e+00 1.074421e+00 9.693139e-01
9.834779e-01 1.052537e+00 9.949529e-01
1.003207e+00 1.061610e+00 9.858729e-01
9.417309e-01 1.016380e+00 9.943139e-01
9.799869e-01 1.028674e+00 1.017985e+00
9.751129e-01 9.529109e-01 1.029927e+00
9.978889e-01 1.076013e+00 9.825009e-01
9.960949e-01 1.059943e+00 9.904149e-01
9.968449e-01 1.059953e+00 9.897389e-01
9.400399e-01 1.006982e+00 9.964769e-01
9.608249e-01 1.014198e+00 1.028850e+00
9.536379e-01 1.038846e+00 1.041630e+00
9.545299e-01 1.038847e+00 1.041149e+00
1.041412e+00 9.974839e-01 1.042243e+00
1.049851e+00 1.008177e+00 1.033395e+00
9.580179e-01 1.019064e+00 1.040790e+00
9.860989e-01 1.061338e+00 9.970709e-01
9.775419e-01 1.055472e+00 1.002203e+00
1.070687e+00 9.993139e-01 1.012208e+00
9.976249e-01 1.081955e+00 9.857109e-01
1.004099e+00 1.081961e+00 9.774699e-01
1.013287e+00 1.081964e+00 9.696499e-01
1.064930e+00 1.003145e+00 9.822479e-01
9.989599e-01 1.079009e+00 9.823659e-01
1.004216e+00 1.083451e+00 9.776609e-01
1.012307e+00 1.083449e+00 9.699979e-01
1.062467e+00 1.002933e+00 9.792189e-01
9.883059e-01 1.067133e+00 9.914669e-01
1.002616e+00 1.084931e+00 9.806299e-01
1.007085e+00 1.084931e+00 9.747729e-01
1.011377e+00 1.084924e+00 9.704269e-01
1.004836e+00 1.065821e+00 9.872839e-01
1.012796e+00 1.084917e+00 9.689749e-01
9.814499e-01 1.055449e+00 9.990689e-01
9.889849e-01 1.055496e+00 9.923899e-01
1.001172e+00 1.074537e+00 9.802089e-01
1.014342e+00 1.080489e+00 9.694139e-01
9.587099e-01 1.024834e+00 1.043594e+00
1.009836e+00 1.086410e+00 9.717399e-01
1.008535e+00 1.063976e+00 9.813009e-01
9.790069e-01 1.053986e+00 1.000779e+00
9.648849e-01 1.066350e+00 9.544589e-01
9.744239e-01 1.041463e+00 1.018865e+00
1.065549e+00 1.001511e+00 1.022698e+00
9.373369e-01 1.000420e+00 1.006473e+00
9.817329e-01 1.073179e+00 9.841439e-01
9.791619e-01 1.056924e+00 1.001056e+00
1.072542e+00 9.909889e-01 9.972359e-01
9.986199e-01 9.965819e-01 9.624529e-01
1.065238e+00 1.010276e+00 9.902239e-01
1.038123e+00 9.582549e-01 1.042455e+00
1.038887e+00 9.582429e-01 1.041803e+00
1.039638e+00 9.582359e-01 1.041133e+00
1.040400e+00 9.582249e-01 1.040475e+00
1.041108e+00 9.581909e-01 1.039735e+00
1.041930e+00 9.581979e-01 1.039164e+00
1.042873e+00 9.582479e-01 1.038770e+00
1.043908e+00 9.582889e-01 1.038509e+00
1.044949e+00 9.582929e-01 1.038293e+00
1.046067e+00 9.583919e-01 1.038121e+00
1.046923e+00 9.583599e-01 1.037613e+00
1.047702e+00 9.583399e-01 1.036976e+00
1.048423e+00 9.583699e-01 1.036269e+00
1.049086e+00 9.583819e-01 1.035486e+00
1.049754e+00 9.583309e-01 1.034674e+00
1.050428e+00 9.583219e-01 1.033893e+00
1.051104e+00 9.583119e-01 1.033110e+00
1.051807e+00 9.582809e-01 1.032356e+00
1.052670e+00 9.582559e-01 1.031837e+00
1.053557e+00 9.582759e-01 1.031369e+00
1.054372e+00 9.582929e-01 1.030787e+00
1.055183e+00 9.583089e-01 1.030201e+00
1.056092e+00 9.583239e-01 1.029749e+00
1.056978e+00 9.583369e-01 1.029288e+00
1.057803e+00 9.583419e-01 1.028724e+00
1.058510e+00 9.583059e-01 1.027985e+00
1.059190e+00 9.582879e-01 1.027213e+00
1.059838e+00 9.582369e-01 1.026374e+00
1.060508e+00 9.582269e-01 1.025595e+00
1.061146e+00 9.581789e-01 1.024747e+00
1.061785e+00 9.581339e-01 1.023904e+00
1.062477e+00 9.581129e-01 1.023144e+00
1.047382e+00 1.024141e+00 1.024581e+00
1.050584e+00 1.002968e+00 1.036208e+00
1.070009e+00 1.004891e+00 9.982209e-01
1.070074e+00 9.950009e-01 9.872649e-01
9.700549e-01 1.024614e+00 1.030078e+00
9.713649e-01 1.023166e+00 1.028445e+00
1.072257e+00 9.909679e-01 9.952469e-01
9.725879e-01 1.049457e+00 1.018458e+00
1.073283e+00 9.587469e-01 1.023008e+00
1.074175e+00 9.587649e-01 1.022552e+00
1.075011e+00 9.587639e-01 1.022010e+00
1.075808e+00 9.587819e-01 1.021402e+00
1.076618e+00 9.587949e-01 1.020815e+00
1.077467e+00 9.587919e-01 1.020286e+00
1.078308e+00 9.587879e-01 1.019745e+00
1.079128e+00 9.587939e-01 1.019178e+00
1.079869e+00 9.587509e-01 1.018474e+00
1.080601e+00 9.587669e-01 1.017784e+00
1.081240e+00 9.587389e-01 1.016943e+00
1.081869e+00 9.587139e-01 1.016094e+00
1.082523e+00 9.586809e-01 1.015264e+00
1.083143e+00 9.586609e-01 1.014408e+00
1.083740e+00 9.586529e-01 1.013542e+00
1.084321e+00 9.585639e-01 1.012382e+00
9.944359e-01 1.065815e+00 9.898259e-01
9.877289e-01 1.065677e+00 9.923889e-01
9.656499e-01 1.020094e+00 1.028908e+00
9.575039e-01 1.048742e+00 1.034923e+00
1.049365e+00 1.004273e+00 1.036201e+00
9.702509e-01 1.052962e+00 1.021686e+00
1.047800e+00 1.022800e+00 1.025181e+00
9.349349e-01 1.023545e+00 1.019352e+00
1.071281e+00 1.000751e+00 1.002212e+00
9.726339e-01 9.539229e-01 1.028016e+00
1.051746e+00 1.022821e+00 1.022068e+00
9.716959e-01 1.021698e+00 1.027144e+00
1.013877e+00 1.070237e+00 9.775429e-01
1.012172e+00 1.070206e+00 9.785619e-01
9.845819e-01 1.055453e+00 9.965599e-01
1.038871e+00 1.021233e+00 1.028068e+00
9.670059e-01 1.055876e+00 1.025830e+00
9.926549e-01 1.067176e+00 9.889739e-01
9.371269e-01 1.003127e+00 1.005459e+00
1.067575e+00 9.987559e-01 1.020339e+00
1.016472e+00 1.077495e+00 9.691729e-01
9.560199e-01 1.044514e+00 1.038049e+00
9.880279e-01 1.061395e+00 9.963789e-01
9.954039e-01 1.065830e+00 9.894769e-01
1.019162e+00 1.008457e+00 1.034703e+00
1.004844e+00 1.081960e+00 9.767929e-01
9.584109e-01 1.029041e+00 1.043208e+00
9.549069e-01 1.062935e+00 9.872279e-01
1.011934e+00 1.086416e+00 9.694669e-01
1.065929e+00 1.013178e+00 1.002218e+00
9.807479e-01 1.031481e+00 1.015575e+00
9.626899e-01 1.018723e+00 1.031674e+00
9.721679e-01 1.031699e+00 1.027914e+00
1.003258e+00 1.084941e+00 9.798229e-01
1.061198e+00 1.006872e+00 1.025233e+00
1.005663e+00 1.065837e+00 9.867289e-01
9.724149e-01 1.055789e+00 1.017739e+00
1.061253e+00 9.977029e-01 1.030533e+00
9.728839e-01 1.031703e+00 1.027177e+00
9.779669e-01 1.059806e+00 1.001107e+00
9.975129e-01 1.071578e+00 9.836999e-01
1.008739e+00 1.073122e+00 9.770919e-01
1.021902e+00 1.008570e+00 1.035028e+00
1.015342e+00 1.074652e+00 9.725939e-01
1.033815e+00 1.018457e+00 1.031267e+00
9.834929e-01 1.053969e+00 9.967219e-01
9.618909e-01 9.986759e-01 9.726829e-01
9.794299e-01 1.039591e+00 1.003066e+00
