-9.843850e-02 -2.884774e-02 4.211700e-02
-1.187589e-01 -4.086770e-02 2.321200e-02
-6.997780e-02 -8.493054e-03 1.916500e-02
-2.231484e-02 2.655279e-03 2.991300e-02
-2.176958e-02 3.100493e-03 2.941500e-02
-1.597536e-01 -6.028969e-02 -6.214000e-03
-1.644223e-01 -5.531485e-02 -1.834600e-02
-6.326674e-02 -1.040811e-02 -2.223200e-02
-9.466668e-02 -3.619775e-02 -2.474700e-02
-9.521252e-02 -3.667546e-02 -2.444400e-02
-9.430263e-02 -3.584497e-02 -2.522900e-02
-1.639812e-01 -6.162441e-02 7.479000e-03
-1.248838e-01 -4.535801e-02 2.133000e-03
-1.758955e-01 -7.642543e-02 1.518500e-02
-8.073408e-02 -1.340177e-02 2.524000e-02
-7.502619e-02 -1.080459e-02 2.418700e-02
-1.701890e-01 -5.646946e-02 -8.923000e-03
-6.642398e-02 -1.106636e-02 4.427400e-02
-9.794150e-02 -2.841732e-02 4.211900e-02
-1.119230e-01 -3.135964e-02 1.948500e-02
-1.150447e-01 -3.412565e-02 1.712400e-02
-1.084281e-01 -2.933548e-02 2.652000e-02
-1.077168e-01 -2.886196e-02 2.685700e-02
-1.332819e-01 -5.132353e-02 1.974100e-02
-1.232050e-01 -4.389017e-02 9.250000e-03
-1.316187e-01 -4.977212e-02 3.385000e-03
-1.506094e-01 -6.911904e-02 2.296000e-03
-8.774683e-02 -2.627199e-02 4.995200e-02
-1.674622e-01 -6.066255e-02 2.349000e-03
-1.689954e-01 -6.775333e-02 -8.827000e-03
-1.667012e-01 -6.676946e-02 -8.403000e-03
-1.643433e-01 -6.578598e-02 -8.009000e-03
-9.028960e-02 -3.289009e-02 5.147200e-02
-6.859686e-02 -3.611062e-02 4.205200e-02
-6.813363e-02 -3.568995e-02 4.219500e-02
-6.756308e-02 -3.523484e-02 4.226500e-02
-6.708587e-02 -3.480956e-02 4.204100e-02
-6.658390e-02 -3.437685e-02 4.203900e-02
-6.607041e-02 -3.393965e-02 4.179100e-02
-6.556025e-02 -3.350284e-02 4.142900e-02
-6.500682e-02 -3.305556e-02 4.114200e-02
-6.450915e-02 -3.262207e-02 4.091500e-02
-6.400879e-02 -3.218924e-02 4.080100e-02
-6.349740e-02 -3.175236e-02 4.078500e-02
-6.301065e-02 -3.132433e-02 4.080100e-02
-6.252055e-02 -3.089388e-02 4.092900e-02
-6.202688e-02 -3.046385e-02 4.072900e-02
-6.147748e-02 -3.001456e-02 4.063000e-02
-6.101212e-02 -2.959155e-02 4.081500e-02
-6.051039e-02 -2.915803e-02 4.081400e-02
-5.999640e-02 -2.872040e-02 4.049600e-02
-5.946955e-02 -2.827964e-02 4.022000e-02
-5.896562e-02 -2.784723e-02 4.009600e-02
-5.847432e-02 -2.741874e-02 4.020100e-02
-9.383330e-02 -3.445202e-02 -2.937500e-02
-1.225816e-01 -4.398878e-02 1.170000e-04
-1.231715e-01 -4.445468e-02 -2.810000e-04
-1.238690e-01 -4.492217e-02 -6.300000e-04
-1.245856e-01 -4.538482e-02 -9.410000e-04
-1.253451e-01 -4.585751e-02 -1.270000e-03
-1.260469e-01 -4.632827e-02 -1.620000e-03
-5.512692e-02 -2.412831e-02 4.880800e-02
-5.469523e-02 -2.371646e-02 4.952300e-02
-5.425953e-02 -2.330663e-02 4.991300e-02
-5.374289e-02 -2.285871e-02 5.031700e-02
-5.331005e-02 -2.245086e-02 5.072500e-02
-5.287824e-02 -2.204590e-02 5.101500e-02
-5.234666e-02 -2.160204e-02 5.109300e-02
-5.184647e-02 -2.117186e-02 5.097900e-02
-5.133998e-02 -2.074072e-02 5.085500e-02
-5.081663e-02 -2.030299e-02 5.061200e-02
-5.029398e-02 -1.986286e-02 5.026000e-02
-4.972531e-02 -1.941638e-02 4.984000e-02
-4.921411e-02 -1.897667e-02 4.949400e-02
-4.869285e-02 -1.853175e-02 4.902600e-02
-4.815521e-02 -1.808614e-02 4.844700e-02
-4.763219e-02 -1.764619e-02 4.809400e-02
-4.712627e-02 -1.721204e-02 4.798100e-02
-4.661810e-02 -1.677696e-02 4.786100e-02
-4.609965e-02 -1.633747e-02 4.779100e-02
-4.559892e-02 -1.590482e-02 4.780300e-02
-4.506922e-02 -1.546959e-02 4.766300e-02
-4.455442e-02 -1.502826e-02 4.782900e-02
-4.413902e-02 -1.461852e-02 4.828400e-02
-4.370754e-02 -1.420384e-02 4.859400e-02
-4.324031e-02 -1.377971e-02 4.895000e-02
-4.275837e-02 -1.335133e-02 4.906200e-02
-4.230303e-02 -1.293150e-02 4.915900e-02
-4.183500e-02 -1.250368e-02 4.937500e-02
-4.132811e-02 -1.207069e-02 4.952100e-02
-4.081429e-02 -1.163571e-02 4.967100e-02
-4.033704e-02 -1.120840e-02 4.990100e-02
-3.983421e-02 -1.077544e-02 4.990500e-02
-3.933325e-02 -1.034359e-02 5.003900e-02
-3.886629e-02 -9.920693e-03 5.012900e-02
-3.836409e-02 -9.488778e-03 5.000500e-02
-3.784211e-02 -9.051730e-03 4.976400e-02
-3.732063e-02 -8.615114e-03 4.939600e-02
-3.671960e-02 -8.148606e-03 4.884800e-02
-3.622494e-02 -7.725218e-03 4.833100e-02
-3.569650e-02 -7.292079e-03 4.755600e-02
-1.571115e-01 -6.743754e-02 4.992000e-02
-1.576049e-01 -6.786634e-02 4.991700e-02
-1.161190e-01 -4.290752e-02 3.322300e-02
-1.613562e-01 -6.351204e-02 3.261100e-02
-7.964991e-02 -1.292685e-02 2.544800e-02
-1.016351e-01 -3.092609e-02 4.094000e-02
-1.566188e-01 -6.700837e-02 4.980700e-02
-1.561304e-01 -6.657843e-02 4.959600e-02
-1.556269e-01 -6.614583e-02 4.935300e-02
-1.618523e-01 -6.736617e-02 4.341700e-02
-1.623373e-01 -6.779370e-02 4.365000e-02
-1.637356e-01 -6.762116e-02 4.072600e-02
-1.622635e-01 -6.633135e-02 3.987600e-02
-1.616088e-01 -6.581931e-02 3.937800e-02
-1.216439e-01 -5.850517e-02 -8.569000e-03
-6.506820e-02 -6.289710e-03 9.164000e-03
-1.591904e-01 -5.967042e-02 9.150000e-03
-7.131794e-02 -8.958150e-03 1.716300e-02
-1.624438e-01 -6.926149e-02 4.585400e-02
-1.685407e-01 -7.027903e-02 3.630600e-02
-1.677086e-01 -5.663390e-02 -6.077000e-03
-2.309163e-02 2.718560e-03 3.029300e-02
-2.255403e-02 3.162140e-03 3.007600e-02
-2.207781e-02 3.586554e-03 3.018400e-02
-2.157648e-02 4.018219e-03 3.034400e-02
-2.108961e-02 4.446866e-03 3.046800e-02
-2.061988e-02 4.873159e-03 3.069000e-02
-2.014919e-02 5.298288e-03 3.077800e-02
-1.065708e-01 -3.523851e-02 3.920200e-02
-1.630007e-01 -6.076777e-02 7.361000e-03
-1.610065e-01 -5.901919e-02 5.730000e-03
-1.480562e-01 -4.642596e-02 -1.268100e-02
-8.479764e-02 -1.514841e-02 2.306400e-02
-1.664202e-01 -6.002109e-02 2.963000e-03
-7.053356e-02 -8.995857e-03 2.518700e-02
-7.344329e-02 -1.255226e-02 3.823000e-02
-1.710724e-01 -5.677155e-02 -1.050900e-02
-1.708855e-01 -5.641764e-02 -1.042400e-02
-1.705464e-01 -5.600799e-02 -1.071200e-02
-1.177233e-01 -3.687284e-02 1.463600e-02
-1.201523e-01 -4.005146e-02 1.152000e-02
-1.114128e-01 -3.205184e-02 2.709700e-02
-1.012815e-01 -2.646183e-02 3.480700e-02
-1.646726e-01 -6.745519e-02 3.840400e-02
-1.771225e-01 -7.257307e-02 -1.189500e-02
-1.748561e-01 -7.065933e-02 -1.038300e-02
-1.679953e-01 -6.113023e-02 1.962000e-03
-1.143556e-01 -3.398733e-02 2.282500e-02
-1.639031e-01 -6.571922e-02 -5.172000e-03
-1.703231e-01 -6.864265e-02 -6.583000e-03
-1.731793e-01 -7.008665e-02 -7.384000e-03
-6.961407e-02 -3.640455e-02 3.951800e-02
-6.914128e-02 -3.597911e-02 3.989500e-02
-6.869697e-02 -3.555582e-02 4.021800e-02
-6.816740e-02 -3.512120e-02 4.003000e-02
-6.762596e-02 -3.467680e-02 3.976500e-02
-6.708453e-02 -3.423240e-02 3.961200e-02
-6.658376e-02 -3.379773e-02 3.972200e-02
-6.611903e-02 -3.337576e-02 3.951300e-02
-6.560874e-02 -3.293833e-02 3.950500e-02
-6.513845e-02 -3.251505e-02 3.965300e-02
-6.463982e-02 -3.208272e-02 3.965400e-02
-6.415184e-02 -3.165463e-02 3.967300e-02
-6.367300e-02 -3.122743e-02 3.992900e-02
-6.318339e-02 -3.079742e-02 4.005900e-02
-6.270048e-02 -3.037020e-02 4.010700e-02
-6.219451e-02 -2.993403e-02 4.011700e-02
-6.168125e-02 -2.949603e-02 4.007300e-02
-6.116700e-02 -2.905717e-02 3.987200e-02
-6.065760e-02 -2.862202e-02 3.983100e-02
-6.015550e-02 -2.818870e-02 3.971900e-02
-5.965494e-02 -2.775870e-02 3.958900e-02
-5.920332e-02 -2.734658e-02 3.964000e-02
-1.773093e-01 -7.131785e-02 -1.611900e-02
-1.764898e-01 -7.084312e-02 -1.581000e-02
-1.756007e-01 -7.036217e-02 -1.552500e-02
-1.746989e-01 -6.988621e-02 -1.525300e-02
-1.737076e-01 -6.939767e-02 -1.498400e-02
-1.726187e-01 -6.890869e-02 -1.475900e-02
-1.715324e-01 -6.842392e-02 -1.454400e-02
-5.575521e-02 -2.402043e-02 4.796100e-02
-5.534316e-02 -2.361858e-02 4.858300e-02
-5.491637e-02 -2.321248e-02 4.896900e-02
-5.440108e-02 -2.277072e-02 4.929300e-02
-5.392117e-02 -2.234610e-02 4.930900e-02
-5.340362e-02 -2.190889e-02 4.918800e-02
-5.289326e-02 -2.147491e-02 4.906200e-02
-5.238190e-02 -2.104006e-02 4.893700e-02
-5.188033e-02 -2.060169e-02 4.850200e-02
-5.135156e-02 -2.016325e-02 4.823000e-02
-5.083214e-02 -1.972492e-02 4.788200e-02
-5.031482e-02 -1.928691e-02 4.763400e-02
-4.981668e-02 -1.885501e-02 4.764000e-02
-4.933647e-02 -1.842714e-02 4.788000e-02
-4.885569e-02 -1.800227e-02 4.818400e-02
-4.840825e-02 -1.758327e-02 4.876600e-02
-4.791281e-02 -1.715071e-02 4.900700e-02
-4.749542e-02 -1.673924e-02 4.929000e-02
-4.703535e-02 -1.631631e-02 4.963600e-02
-4.659753e-02 -1.589865e-02 5.008500e-02
-4.608804e-02 -1.546492e-02 5.024300e-02
-4.553862e-02 -1.502110e-02 5.018100e-02
-4.508115e-02 -1.459892e-02 5.026100e-02
-4.456843e-02 -1.416339e-02 5.041100e-02
-4.412542e-02 -1.374423e-02 5.060600e-02
-4.357636e-02 -1.330023e-02 5.053700e-02
-4.312802e-02 -1.287896e-02 5.073700e-02
-4.260197e-02 -1.244189e-02 5.090300e-02
-4.216009e-02 -1.202421e-02 5.122700e-02
-4.168434e-02 -1.159820e-02 5.132700e-02
-4.117285e-02 -1.116274e-02 5.134400e-02
-4.064564e-02 -1.072216e-02 5.138100e-02
-4.014094e-02 -1.028808e-02 5.125400e-02
-3.965310e-02 -9.860595e-03 5.110200e-02
-3.912676e-02 -9.420266e-03 5.087000e-02
-3.859945e-02 -8.981101e-03 5.050500e-02
-3.803023e-02 -8.524642e-03 5.006100e-02
-3.748919e-02 -8.082093e-03 4.944600e-02
-3.705340e-02 -7.681182e-03 4.870800e-02
-1.429472e-01 -6.219337e-02 5.351100e-02
-1.107533e-01 -3.471271e-02 3.487400e-02
-5.819342e-02 -3.809477e-03 4.182000e-03
-1.416185e-01 -6.667918e-02 1.732600e-02
-9.745858e-02 -2.799011e-02 4.206100e-02
-1.439394e-01 -6.305715e-02 5.335700e-02
-1.636389e-01 -6.388696e-02 1.295700e-02
-1.109335e-01 -3.029370e-02 1.617100e-02
-1.551153e-01 -6.571381e-02 4.896300e-02
-1.449246e-01 -6.391892e-02 5.276600e-02
-1.628325e-01 -6.822362e-02 4.377300e-02
-1.633363e-01 -6.865542e-02 4.378600e-02
-1.638499e-01 -6.909120e-02 4.368500e-02
-1.643414e-01 -6.952029e-02 4.355300e-02
-1.611566e-01 -6.541974e-02 3.881700e-02
-1.606786e-01 -6.500923e-02 3.832000e-02
-1.602050e-01 -6.459714e-02 3.785400e-02
-1.597279e-01 -6.414244e-02 3.731700e-02
-1.592383e-01 -6.375889e-02 3.707100e-02
-1.139362e-01 -3.300516e-02 1.670200e-02
-1.144183e-01 -3.346012e-02 1.630100e-02
-2.437774e-02 2.350756e-03 3.108100e-02
-2.386223e-02 2.784207e-03 3.068100e-02
-2.335160e-02 3.219420e-03 3.071900e-02
-2.288701e-02 3.640768e-03 3.094400e-02
-2.238325e-02 4.070535e-03 3.114700e-02
-2.191143e-02 4.497146e-03 3.136900e-02
-2.141672e-02 4.930074e-03 3.149000e-02
-2.092931e-02 5.361185e-03 3.159700e-02
-2.044563e-02 5.790063e-03 3.155200e-02
-1.676631e-01 -7.418549e-02 3.215800e-02
-9.695056e-02 -2.755565e-02 4.192200e-02
-1.527828e-01 -6.647575e-02 5.273000e-02
-1.150216e-01 -3.397464e-02 1.300200e-02
-1.621426e-01 -6.485507e-02 3.590700e-02
-5.724287e-02 -3.700777e-03 2.115700e-02
-9.644007e-02 -2.712105e-02 4.166700e-02
-6.384220e-02 -5.931465e-03 1.615800e-02
-1.673102e-01 -5.853586e-02 -3.430000e-04
-1.699084e-01 -5.553197e-02 -1.151200e-02
-5.906045e-02 -4.610849e-03 2.515900e-02
-1.220993e-01 -4.277511e-02 8.803000e-03
-1.284319e-01 -4.741631e-02 5.227000e-03
-1.322176e-01 -5.023080e-02 3.022000e-03
-1.768597e-01 -7.208701e-02 -1.143300e-02
-1.740099e-01 -7.018153e-02 -1.010100e-02
-1.730627e-01 -6.969823e-02 -9.825000e-03
-1.590083e-01 -6.378920e-02 -4.318000e-03
-1.649873e-01 -6.620368e-02 -5.403000e-03
-1.712860e-01 -6.912356e-02 -6.840000e-03
-1.739778e-01 -7.056917e-02 -7.686000e-03
-1.753455e-01 -7.154913e-02 -8.356000e-03
-7.008132e-02 -3.625220e-02 3.622400e-02
-9.592735e-02 -2.668552e-02 4.140800e-02
-6.930831e-02 -3.544276e-02 3.737200e-02
-6.870564e-02 -3.499483e-02 3.797200e-02
-6.822042e-02 -3.456262e-02 3.764400e-02
-6.778809e-02 -3.416271e-02 3.731000e-02
-6.722685e-02 -3.369816e-02 3.776100e-02
-6.675703e-02 -3.327328e-02 3.814200e-02
-6.630346e-02 -3.285598e-02 3.855200e-02
-6.581545e-02 -3.242585e-02 3.879600e-02
-6.530905e-02 -3.198580e-02 3.900300e-02
-6.485156e-02 -3.156910e-02 3.930500e-02
-6.436824e-02 -3.114003e-02 3.955400e-02
-6.387764e-02 -3.070916e-02 3.968000e-02
-6.337540e-02 -3.027521e-02 3.968100e-02
-6.287167e-02 -2.983997e-02 3.959700e-02
-6.236238e-02 -2.940340e-02 3.955400e-02
-6.185491e-02 -2.896593e-02 3.948500e-02
-6.135058e-02 -2.853166e-02 3.938100e-02
-6.082320e-02 -2.808844e-02 3.912000e-02
-6.031415e-02 -2.765858e-02 3.891600e-02
-5.985922e-02 -2.724060e-02 3.900100e-02
-8.750310e-02 -2.642391e-02 5.116500e-02
-1.277517e-01 -4.721618e-02 1.701700e-02
-9.073753e-02 -2.815550e-02 4.565000e-02
-1.332293e-01 -5.095847e-02 1.427500e-02
-1.638709e-01 -6.409538e-02 1.423800e-02
-1.734338e-01 -7.115260e-02 -4.194000e-03
-5.684549e-02 -2.434614e-02 4.547200e-02
-5.642633e-02 -2.393964e-02 4.611800e-02
-5.592762e-02 -2.350324e-02 4.660300e-02
-5.546640e-02 -2.308431e-02 4.662700e-02
-5.496144e-02 -2.264900e-02 4.686500e-02
-5.445018e-02 -2.221274e-02 4.649600e-02
-5.394931e-02 -2.177947e-02 4.661600e-02
-5.344355e-02 -2.134797e-02 4.638600e-02
-5.294868e-02 -2.091240e-02 4.661200e-02
-5.247536e-02 -2.049200e-02 4.678400e-02
-5.198372e-02 -2.005822e-02 4.700600e-02
-5.151640e-02 -1.963551e-02 4.739000e-02
-5.106552e-02 -1.921004e-02 4.796600e-02
-5.062968e-02 -1.879959e-02 4.873300e-02
-5.020529e-02 -1.838956e-02 4.957900e-02
-4.977388e-02 -1.798645e-02 5.020100e-02
-4.928429e-02 -1.754345e-02 5.039600e-02
-4.879249e-02 -1.711454e-02 5.052900e-02
-4.831637e-02 -1.668871e-02 5.076600e-02
-4.783333e-02 -1.626088e-02 5.101300e-02
-4.735521e-02 -1.583331e-02 5.124600e-02
-4.687449e-02 -1.540500e-02 5.135500e-02
-4.638059e-02 -1.497577e-02 5.162300e-02
-4.590807e-02 -1.455156e-02 5.198900e-02
-4.544764e-02 -1.412881e-02 5.233400e-02
-4.498908e-02 -1.370718e-02 5.268300e-02
-4.452818e-02 -1.328604e-02 5.291000e-02
-4.399887e-02 -1.284514e-02 5.293800e-02
-4.337659e-02 -1.237423e-02 5.243800e-02
-4.293132e-02 -1.195961e-02 5.222800e-02
-4.247029e-02 -1.153785e-02 5.229300e-02
-4.199604e-02 -1.111314e-02 5.252500e-02
-4.146077e-02 -1.066908e-02 5.245200e-02
-4.089947e-02 -1.021548e-02 5.214100e-02
-4.038429e-02 -9.779819e-03 5.175400e-02
-3.988226e-02 -9.350552e-03 5.135100e-02
-3.938014e-02 -8.922699e-03 5.094600e-02
-3.889078e-02 -8.478902e-03 5.044300e-02
-1.590468e-01 -6.397006e-02 -1.157200e-02
-1.516486e-01 -6.999004e-02 6.277000e-03
-1.698654e-01 -6.710728e-02 -2.058500e-02
-9.269798e-02 -3.443980e-02 -3.160600e-02
-1.831238e-01 -7.317188e-02 -5.203400e-02
-1.488341e-01 -6.446812e-02 5.266300e-02
-1.546439e-01 -6.246206e-02 -5.659000e-03
-1.536443e-01 -7.165388e-02 1.827300e-02
-8.219917e-02 -1.427157e-02 -2.619000e-03
-1.175508e-01 -3.666948e-02 1.338800e-02
-1.477386e-01 -5.790436e-02 2.541900e-02
-1.092508e-01 -3.341150e-02 3.547800e-02
-1.187022e-01 -3.802464e-02 1.209600e-02
-1.653530e-01 -6.554888e-02 -2.558200e-02
-1.359252e-01 -6.387319e-02 2.134000e-02
-1.648715e-01 -6.996489e-02 4.321200e-02
-1.654087e-01 -7.041413e-02 4.274600e-02
-1.124627e-01 -3.153102e-02 1.088200e-02
-1.666318e-01 -7.397784e-02 3.018100e-02
-1.213870e-01 -4.276722e-02 1.881900e-02
-1.229711e-01 -4.395862e-02 3.234000e-03
-1.663338e-01 -6.143781e-02 4.593000e-03
-2.575213e-02 1.946498e-03 3.216300e-02
-2.510469e-02 2.434197e-03 3.124900e-02
-2.463268e-02 2.850469e-03 3.107200e-02
-2.414584e-02 3.277085e-03 3.122000e-02
-2.367346e-02 3.700683e-03 3.146700e-02
-2.319821e-02 4.126262e-03 3.171700e-02
-2.271530e-02 4.553476e-03 3.199600e-02
-2.221453e-02 4.988154e-03 3.214800e-02
-2.173045e-02 5.418880e-03 3.222100e-02
-2.119040e-02 5.868071e-03 3.214600e-02
-1.196006e-01 -4.592462e-02 3.358200e-02
-1.502482e-01 -6.881674e-02 3.030000e-04
-1.664489e-01 -6.655749e-02 -4.060500e-02
-7.282945e-02 -9.571154e-03 1.616600e-02
-6.785307e-02 -8.081480e-03 2.618200e-02
-1.645439e-01 -6.900373e-02 4.240000e-02
-1.643601e-01 -5.971449e-02 4.499000e-03
-1.407206e-01 -6.096664e-02 5.334500e-02
-7.505955e-02 -1.394548e-02 4.060200e-02
-1.477240e-01 -6.799020e-02 2.850000e-04
-1.570618e-01 -7.126199e-02 5.247000e-03
-1.706143e-01 -5.702930e-02 -1.402900e-02
-1.244703e-01 -4.480796e-02 8.547000e-03
-1.719609e-01 -7.120948e-02 2.584000e-02
-1.684427e-01 -6.158615e-02 1.542000e-03
-1.601494e-01 -6.424794e-02 -4.597000e-03
-1.654905e-01 -6.627447e-02 -8.213000e-03
-1.630597e-01 -6.527688e-02 -7.829000e-03
-1.206236e-01 -5.672514e-02 3.835100e-02
-1.023044e-01 -2.464922e-02 2.018000e-02
-1.154618e-01 -3.492590e-02 2.205800e-02
-9.274910e-02 -3.107158e-02 4.737600e-02
-1.168974e-01 -3.630361e-02 2.084600e-02
-1.278522e-01 -4.799921e-02 2.198600e-02
-6.902901e-02 -3.475938e-02 3.473100e-02
-6.875890e-02 -3.441495e-02 3.630100e-02
-6.837177e-02 -3.403069e-02 3.662600e-02
-6.791207e-02 -3.360758e-02 3.725300e-02
-6.745674e-02 -3.318775e-02 3.776800e-02
-6.699911e-02 -3.277043e-02 3.817400e-02
-6.652296e-02 -3.234257e-02 3.854900e-02
-6.605277e-02 -3.191788e-02 3.892700e-02
-6.558575e-02 -3.149843e-02 3.922100e-02
-6.508228e-02 -3.105691e-02 3.941800e-02
-6.458091e-02 -3.062321e-02 3.942800e-02
-6.407458e-02 -3.018722e-02 3.937200e-02
-6.357022e-02 -2.975092e-02 3.934700e-02
-6.306798e-02 -2.931698e-02 3.933900e-02
-6.255896e-02 -2.888165e-02 3.918800e-02
-6.202911e-02 -2.843829e-02 3.883300e-02
-6.150800e-02 -2.800149e-02 3.854000e-02
-6.100613e-02 -2.756736e-02 3.833700e-02
-6.051256e-02 -2.713591e-02 3.824300e-02
-6.012735e-02 -2.674181e-02 3.842100e-02
-8.841620e-02 -1.687168e-02 2.075300e-02
-8.746218e-02 -1.639247e-02 2.102100e-02
-8.646716e-02 -1.590576e-02 2.127900e-02
-8.546176e-02 -1.542355e-02 2.153000e-02
-8.445366e-02 -1.494202e-02 2.178000e-02
-5.732379e-02 -2.419236e-02 4.291600e-02
-5.684897e-02 -2.376315e-02 4.340800e-02
-5.638895e-02 -2.334976e-02 4.319200e-02
-5.590930e-02 -2.291887e-02 4.355900e-02
-5.538205e-02 -2.245577e-02 4.409900e-02
-5.495976e-02 -2.204605e-02 4.485500e-02
-5.460120e-02 -2.168302e-02 4.561800e-02
-5.415895e-02 -2.126553e-02 4.637400e-02
-5.372620e-02 -2.084875e-02 4.724300e-02
-5.328981e-02 -2.042833e-02 4.796700e-02
-5.284477e-02 -2.001292e-02 4.858400e-02
-5.237156e-02 -1.959110e-02 4.897100e-02
-5.193140e-02 -1.916641e-02 4.951300e-02
-5.148076e-02 -1.874014e-02 5.020900e-02
-5.104332e-02 -1.833732e-02 5.085400e-02
-5.055509e-02 -1.791549e-02 5.115900e-02
-5.007014e-02 -1.748452e-02 5.125400e-02
-4.958970e-02 -1.705744e-02 5.150000e-02
-4.912211e-02 -1.663349e-02 5.185800e-02
-4.864855e-02 -1.620638e-02 5.207700e-02
-4.815938e-02 -1.578025e-02 5.236000e-02
-4.772732e-02 -1.536107e-02 5.289700e-02
-4.722674e-02 -1.493655e-02 5.319300e-02
-4.676683e-02 -1.450876e-02 5.352800e-02
-4.629445e-02 -1.408517e-02 5.390400e-02
-4.580930e-02 -1.365702e-02 5.416500e-02
-4.531127e-02 -1.322371e-02 5.415200e-02
-4.475944e-02 -1.277631e-02 5.340900e-02
-4.422666e-02 -1.233441e-02 5.291100e-02
-4.373196e-02 -1.190149e-02 5.304200e-02
-4.326144e-02 -1.147900e-02 5.325100e-02
-4.275574e-02 -1.104406e-02 5.327100e-02
-4.222057e-02 -1.059858e-02 5.307000e-02
-4.165554e-02 -1.014276e-02 5.250200e-02
-4.113296e-02 -9.706691e-03 5.198200e-02
-4.064063e-02 -9.282820e-03 5.168700e-02
-4.007917e-02 -8.826580e-03 5.137500e-02
-1.483242e-01 -6.403457e-02 5.228400e-02
-1.478083e-01 -6.360272e-02 5.197500e-02
-6.157257e-02 -5.400411e-03 -8.100000e-04
-5.840276e-02 -3.995771e-03 1.815900e-02
-5.845833e-02 -4.047898e-03 1.916100e-02
-1.493412e-01 -6.490374e-02 5.302700e-02
-9.560098e-02 -2.572788e-02 4.025000e-02
-1.473805e-01 -6.463075e-02 5.286700e-02
-1.498452e-01 -6.534022e-02 5.322200e-02
-1.415234e-01 -6.536887e-02 4.686500e-02
-1.475487e-01 -6.912145e-02 8.314000e-03
-1.531916e-01 -6.544628e-02 5.065300e-02
-1.537006e-01 -6.587816e-02 5.103400e-02
-1.542121e-01 -6.631159e-02 5.130700e-02
-1.547057e-01 -6.674304e-02 5.151600e-02
-8.133953e-02 -1.380460e-02 -2.033000e-03
-1.477348e-01 -6.927706e-02 9.306000e-03
-9.542009e-02 -2.625272e-02 4.125100e-02
-1.082482e-01 -3.254473e-02 3.583700e-02
-1.137034e-01 -3.410101e-02 2.680900e-02
-1.034421e-01 -2.519645e-02 1.704400e-02
-6.530166e-02 -6.517898e-03 3.182000e-03
-1.033579e-01 -2.532661e-02 2.113300e-02
-2.645627e-02 2.039702e-03 3.220500e-02
-2.588302e-02 2.494148e-03 3.149400e-02
-2.540191e-02 2.916799e-03 3.148900e-02
-2.492423e-02 3.340482e-03 3.161500e-02
-2.445258e-02 3.764445e-03 3.184300e-02
-2.397486e-02 4.190159e-03 3.209900e-02
-2.348106e-02 4.620806e-03 3.227000e-02
-2.300031e-02 5.051148e-03 3.247400e-02
-2.248678e-02 5.490375e-03 3.250900e-02
-2.199767e-02 5.919955e-03 3.243800e-02
-1.357981e-01 -5.954908e-02 5.209400e-02
-9.643202e-02 -2.112208e-02 2.109500e-02
-9.892505e-02 -2.255160e-02 2.018600e-02
-1.131847e-01 -3.363432e-02 2.719400e-02
-7.266160e-02 -9.413292e-03 1.016400e-02
-1.621852e-01 -6.974254e-02 4.638300e-02
-9.535388e-02 -2.114888e-02 2.781800e-02
-1.470693e-01 -4.700823e-02 -9.580000e-03
-1.469065e-01 -4.675629e-02 -1.142000e-02
-1.675161e-01 -7.074623e-02 -4.886000e-03
-1.487648e-01 -6.821906e-02 -6.930000e-04
-1.216741e-01 -4.259432e-02 4.499000e-03
-9.753653e-02 -2.180061e-02 2.206000e-02
-1.660642e-01 -6.669384e-02 -5.636000e-03
-1.039672e-01 -2.650072e-02 2.847800e-02
-1.170127e-01 -3.814950e-02 2.590700e-02
-1.700889e-01 -7.234628e-02 3.597000e-02
-1.684159e-01 -6.032846e-02 2.270000e-04
-1.688778e-01 -6.078943e-02 -1.830000e-04
-1.708813e-01 -7.009157e-02 2.534900e-02
-1.271251e-01 -4.855808e-02 2.550900e-02
-1.708176e-01 -6.963439e-02 -3.560000e-04
-9.943553e-02 -2.412069e-02 2.985000e-02
-6.941179e-02 -3.429888e-02 3.561900e-02
-6.905231e-02 -3.392606e-02 3.656800e-02
-6.862746e-02 -3.351763e-02 3.733600e-02
-6.818900e-02 -3.311190e-02 3.777600e-02
-6.772324e-02 -3.268704e-02 3.826900e-02
-6.725347e-02 -3.225872e-02 3.874700e-02
-6.679072e-02 -3.184396e-02 3.908000e-02
-6.630514e-02 -3.141194e-02 3.931600e-02
-6.580528e-02 -3.097954e-02 3.939100e-02
-6.529964e-02 -3.054115e-02 3.940000e-02
-6.479254e-02 -3.010349e-02 3.935700e-02
-6.428152e-02 -2.966643e-02 3.920900e-02
-6.376160e-02 -2.922766e-02 3.895600e-02
-6.323991e-02 -2.878637e-02 3.869700e-02
-6.270710e-02 -2.834244e-02 3.832300e-02
-6.219774e-02 -2.790933e-02 3.806200e-02
-6.167312e-02 -2.746199e-02 3.772400e-02
-6.114449e-02 -2.703168e-02 3.737100e-02
-6.068082e-02 -2.659963e-02 3.737700e-02
-1.702331e-01 -6.772323e-02 -1.556500e-02
-1.692046e-01 -6.725397e-02 -1.534900e-02
-1.229292e-01 -4.594327e-02 2.883100e-02
-1.221283e-01 -4.546123e-02 2.910300e-02
-1.212603e-01 -4.498548e-02 2.941600e-02
-5.794971e-02 -2.407542e-02 4.033800e-02
-5.741977e-02 -2.363348e-02 4.137100e-02
-5.699724e-02 -2.321705e-02 4.236900e-02
-5.661949e-02 -2.282742e-02 4.353100e-02
-5.624081e-02 -2.244097e-02 4.470900e-02
-5.583847e-02 -2.203153e-02 4.595800e-02
-5.543402e-02 -2.161427e-02 4.718100e-02
-5.502916e-02 -2.121565e-02 4.820900e-02
-5.461479e-02 -2.080880e-02 4.917000e-02
-5.416769e-02 -2.039510e-02 4.978500e-02
-5.368615e-02 -1.996857e-02 5.003000e-02
-5.319714e-02 -1.953757e-02 5.014000e-02
-5.272881e-02 -1.911399e-02 5.049900e-02
-5.228977e-02 -1.869627e-02 5.120100e-02
-5.182152e-02 -1.827675e-02 5.160100e-02
-5.132582e-02 -1.785046e-02 5.176600e-02
-5.085989e-02 -1.742296e-02 5.208300e-02
-5.038983e-02 -1.699888e-02 5.245100e-02
-4.991222e-02 -1.657175e-02 5.268400e-02
-4.944120e-02 -1.614883e-02 5.306100e-02
-4.898460e-02 -1.572690e-02 5.352500e-02
-4.850212e-02 -1.530357e-02 5.381300e-02
-4.803506e-02 -1.487458e-02 5.411900e-02
-4.756673e-02 -1.445100e-02 5.447600e-02
-4.708309e-02 -1.402415e-02 5.474800e-02
-4.658742e-02 -1.359239e-02 5.473500e-02
-4.604749e-02 -1.314929e-02 5.411600e-02
-4.549562e-02 -1.269986e-02 5.350800e-02
-4.495162e-02 -1.224924e-02 5.348100e-02
-4.448077e-02 -1.182897e-02 5.354600e-02
-4.398486e-02 -1.139801e-02 5.351400e-02
-4.346085e-02 -1.095720e-02 5.330000e-02
-4.292064e-02 -1.051287e-02 5.281300e-02
-4.237128e-02 -1.006561e-02 5.221400e-02
-4.189537e-02 -9.644454e-03 5.214600e-02
-4.134376e-02 -9.188750e-03 5.212900e-02
-4.093863e-02 -8.781389e-03 5.190700e-02
-1.122280e-01 -3.600529e-02 3.399400e-02
-7.291829e-02 -1.046109e-02 -5.822000e-03
-1.512748e-01 -6.517933e-02 5.211700e-02
-1.791296e-01 -6.965432e-02 -5.260200e-02
-1.280895e-01 -5.327022e-02 3.613700e-02
-9.610764e-02 -2.616166e-02 4.050300e-02
-9.661580e-02 -2.659674e-02 4.075600e-02
-1.215660e-01 -4.765074e-02 3.351700e-02
-1.508510e-01 -6.620880e-02 5.327300e-02
-1.513472e-01 -6.664099e-02 5.314100e-02
-6.553740e-02 -8.337053e-03 -1.081400e-02
-1.689843e-01 -5.636419e-02 -1.696900e-02
-1.100198e-01 -3.826095e-02 3.733200e-02
-1.744384e-01 -6.874404e-02 -2.860100e-02
-1.551945e-01 -6.717139e-02 5.150200e-02
-1.556666e-01 -6.759172e-02 5.146000e-02
-1.562030e-01 -6.803930e-02 5.117600e-02
-1.566438e-01 -6.844454e-02 5.086500e-02
-1.139003e-01 -3.290702e-02 9.651000e-03
-1.635126e-01 -7.056508e-02 4.478200e-02
-8.970279e-02 -1.755889e-02 2.177000e-02
-1.237930e-01 -4.434339e-02 8.889000e-03
-7.271435e-02 -9.472976e-03 1.316400e-02
-2.722164e-02 2.101371e-03 3.216200e-02
-2.662146e-02 2.575137e-03 3.158400e-02
-2.616261e-02 2.985013e-03 3.161900e-02
-2.568220e-02 3.410061e-03 3.173900e-02
-2.520945e-02 3.833476e-03 3.198400e-02
-2.473123e-02 4.259623e-03 3.224000e-02
-2.424629e-02 4.690599e-03 3.246600e-02
-2.375122e-02 5.123344e-03 3.259900e-02
-2.324475e-02 5.559955e-03 3.261500e-02
-2.272553e-02 6.001115e-03 3.250300e-02
-1.130995e-01 -4.030351e-02 3.366600e-02
-1.610815e-01 -6.343218e-02 3.303200e-02
-1.714241e-01 -7.357609e-02 3.350200e-02
-1.624154e-01 -6.581284e-02 3.797400e-02
-1.619715e-01 -6.537497e-02 3.751000e-02
-1.614696e-01 -6.493881e-02 3.715200e-02
-7.421308e-02 -1.320691e-02 3.956700e-02
-7.086220e-02 -1.032597e-02 3.334900e-02
-8.231177e-02 -1.468109e-02 2.988100e-02
-8.339605e-02 -1.516210e-02 2.967300e-02
-6.657032e-02 -6.908088e-03 7.166000e-03
-1.241786e-01 -4.505284e-02 1.993700e-02
-7.154217e-02 -9.151341e-03 2.017200e-02
-1.722507e-01 -6.960700e-02 -7.099000e-03
-1.031801e-01 -2.602409e-02 2.877500e-02
-1.165247e-01 -4.214532e-02 3.129900e-02
-1.346103e-01 -5.179590e-02 1.958000e-02
-1.023436e-01 -2.554965e-02 2.906400e-02
-1.013875e-01 -2.526411e-02 3.052200e-02
-1.673052e-01 -6.934907e-02 3.702500e-02
-1.641966e-01 -6.513943e-02 3.051000e-02
-1.713674e-01 -7.063056e-02 5.918000e-03
-1.708007e-01 -6.982178e-02 1.399500e-02
-7.020341e-02 -3.424594e-02 3.602200e-02
-6.986553e-02 -3.389033e-02 3.694400e-02
-6.938017e-02 -3.344999e-02 3.761200e-02
-6.893311e-02 -3.303832e-02 3.815400e-02
-6.847408e-02 -3.261829e-02 3.867700e-02
-6.800665e-02 -3.218949e-02 3.914700e-02
-6.752171e-02 -3.176602e-02 3.935200e-02
-6.702474e-02 -3.133013e-02 3.947300e-02
-6.651851e-02 -3.089272e-02 3.947500e-02
-6.600735e-02 -3.045504e-02 3.937700e-02
-6.547546e-02 -3.000791e-02 3.914700e-02
-6.498989e-02 -2.958340e-02 3.904200e-02
-6.444998e-02 -2.913482e-02 3.870300e-02
-6.394266e-02 -2.870547e-02 3.837000e-02
-6.341248e-02 -2.826432e-02 3.799600e-02
-6.285108e-02 -2.780464e-02 3.757300e-02
-6.233986e-02 -2.737040e-02 3.720300e-02
-6.180003e-02 -2.692589e-02 3.693700e-02
-6.132125e-02 -2.650276e-02 3.675300e-02
-1.649507e-01 -6.494545e-02 3.420000e-03
-1.713735e-01 -6.822332e-02 -1.578900e-02
-1.679311e-01 -6.673913e-02 -1.516100e-02
-1.515504e-01 -6.926253e-02 1.283000e-03
-1.686436e-01 -6.822160e-02 2.683200e-02
-5.870787e-02 -2.402351e-02 4.091300e-02
-5.825900e-02 -2.357927e-02 4.249900e-02
-5.786179e-02 -2.317478e-02 4.401800e-02
-5.748614e-02 -2.278546e-02 4.530100e-02
-5.708409e-02 -2.237177e-02 4.653900e-02
-5.668892e-02 -2.197855e-02 4.770300e-02
-5.628163e-02 -2.158182e-02 4.871300e-02
-5.587182e-02 -2.116792e-02 4.975600e-02
-5.542410e-02 -2.076068e-02 5.040700e-02
-5.496027e-02 -2.033349e-02 5.072400e-02
-5.444309e-02 -1.990360e-02 5.067600e-02
-5.396979e-02 -1.947021e-02 5.083400e-02
-5.351312e-02 -1.904422e-02 5.142200e-02
-5.305713e-02 -1.862882e-02 5.192700e-02
-5.257619e-02 -1.820882e-02 5.222800e-02
-5.210920e-02 -1.778389e-02 5.257000e-02
-5.162912e-02 -1.735663e-02 5.281200e-02
-5.114977e-02 -1.692900e-02 5.304000e-02
-5.067592e-02 -1.650613e-02 5.343700e-02
-5.020673e-02 -1.608230e-02 5.380300e-02
-4.972944e-02 -1.565296e-02 5.400500e-02
-4.924636e-02 -1.522310e-02 5.422100e-02
-4.877604e-02 -1.479779e-02 5.455800e-02
-4.829553e-02 -1.437415e-02 5.485400e-02
-4.779972e-02 -1.394177e-02 5.487500e-02
-4.724735e-02 -1.348441e-02 5.450800e-02
-4.669573e-02 -1.304169e-02 5.381600e-02
-4.620026e-02 -1.261460e-02 5.365500e-02
-4.568527e-02 -1.217611e-02 5.356100e-02
-4.517488e-02 -1.174009e-02 5.343300e-02
-4.467505e-02 -1.130973e-02 5.326400e-02
-4.413691e-02 -1.086369e-02 5.294600e-02
-4.361630e-02 -1.042732e-02 5.253500e-02
-4.309124e-02 -9.983611e-03 5.247700e-02
-4.260710e-02 -9.556330e-03 5.257700e-02
-4.208072e-02 -9.113970e-03 5.235900e-02
-1.493695e-01 -6.636282e-02 5.257500e-02
-1.488759e-01 -6.592934e-02 5.280700e-02
-1.483763e-01 -6.549614e-02 5.295600e-02
-1.478757e-01 -6.506411e-02 5.286000e-02
-1.245540e-01 -5.024390e-02 3.374100e-02
-1.286490e-01 -5.373082e-02 3.670100e-02
-9.712579e-02 -2.703090e-02 4.089500e-02
-1.220782e-01 -4.808786e-02 3.340700e-02
-1.210733e-01 -4.721954e-02 3.364700e-02
-1.688940e-01 -5.842901e-02 -3.153000e-03
-1.518410e-01 -6.707164e-02 5.288900e-02
-1.523129e-01 -6.748933e-02 5.247900e-02
-8.016299e-02 -1.299269e-02 2.270400e-02
-1.700070e-01 -5.966134e-02 -4.075000e-03
-1.655085e-01 -6.567807e-02 -1.758200e-02
-1.582471e-01 -4.844751e-02 -2.682600e-02
-5.772264e-02 -5.809771e-03 -1.476400e-02
-6.218217e-02 -5.174840e-03 9.160000e-03
-7.329293e-02 -1.000604e-02 1.162000e-03
-1.871463e-01 -7.643145e-02 -3.689000e-02
-1.687668e-01 -5.751588e-02 -4.356000e-03
-1.299721e-01 -6.339165e-02 1.341100e-02
-9.813998e-02 -2.789871e-02 4.118100e-02
-1.597435e-01 -6.762143e-02 4.709500e-02
-2.789136e-02 2.205374e-03 3.199000e-02
-2.736272e-02 2.643191e-03 3.151000e-02
-2.688940e-02 3.063592e-03 3.160600e-02
-2.641615e-02 3.487440e-03 3.183800e-02
-2.593980e-02 3.912471e-03 3.208600e-02
-2.546162e-02 4.336586e-03 3.226400e-02
-2.496898e-02 4.771228e-03 3.247800e-02
-2.447491e-02 5.203107e-03 3.261500e-02
-2.395692e-02 5.644200e-03 3.255000e-02
-2.335487e-02 6.098588e-03 3.245900e-02
-8.998329e-02 -2.092181e-02 3.731000e-02
-9.365815e-02 -1.968134e-02 2.192500e-02
-9.489043e-02 -2.036702e-02 2.292700e-02
-1.224611e-01 -4.349645e-02 3.640000e-03
-1.148793e-01 -3.392490e-02 1.588200e-02
-1.609642e-01 -6.450307e-02 3.678400e-02
-1.604537e-01 -6.406502e-02 3.640800e-02
-1.325580e-01 -6.365460e-02 8.400000e-03
-1.658094e-01 -6.099515e-02 4.816000e-03
-9.943076e-02 -2.333556e-02 2.509000e-02
-1.777440e-01 -7.283534e-02 -1.325200e-02
-1.204268e-01 -4.054668e-02 8.094000e-03
-1.636037e-01 -6.800399e-02 4.190600e-02
-1.747501e-01 -7.105453e-02 -8.014000e-03
-1.674203e-01 -6.748426e-02 2.876800e-02
-1.673798e-01 -6.808370e-02 3.247800e-02
-1.014124e-01 -2.507270e-02 2.934100e-02
-1.159660e-01 -3.538754e-02 2.165600e-02
-1.660898e-01 -6.598645e-02 9.792000e-03
-1.636566e-01 -6.611429e-02 3.661500e-02
-1.717558e-01 -7.109139e-02 5.492000e-03
-1.181814e-01 -4.060458e-02 2.480900e-02
-1.772210e-01 -7.168986e-02 -1.374800e-02
-1.190035e-01 -3.878856e-02 6.905000e-03
-1.618634e-01 -6.332332e-02 2.901900e-02
-1.206647e-01 -4.170567e-02 2.348000e-03
-6.970277e-02 -3.297587e-02 3.881500e-02
-6.923394e-02 -3.254435e-02 3.927900e-02
-6.875413e-02 -3.211832e-02 3.955300e-02
-6.826042e-02 -3.168626e-02 3.969400e-02
-6.775915e-02 -3.125115e-02 3.966400e-02
-6.723983e-02 -3.081140e-02 3.959400e-02
-6.672717e-02 -3.037243e-02 3.946800e-02
-6.620252e-02 -2.993057e-02 3.921800e-02
-6.568993e-02 -2.949565e-02 3.892000e-02
-6.512947e-02 -2.904028e-02 3.845400e-02
-6.463491e-02 -2.861547e-02 3.814000e-02
-6.408721e-02 -2.816465e-02 3.767100e-02
-6.355390e-02 -2.772029e-02 3.731900e-02
-6.304541e-02 -2.728742e-02 3.702300e-02
-6.251790e-02 -2.685109e-02 3.660500e-02
-6.200025e-02 -2.641529e-02 3.629600e-02
-6.150494e-02 -2.598334e-02 3.637600e-02
-1.172607e-01 -3.694022e-02 2.163300e-02
-1.168246e-01 -3.648207e-02 2.204600e-02
-1.224696e-01 -4.332626e-02 1.558900e-02
-1.697693e-01 -6.994954e-02 3.104500e-02
-1.739872e-01 -7.293383e-02 2.009500e-02
-1.863275e-01 -7.668785e-02 -3.902600e-02
-1.228924e-01 -5.765893e-02 -1.158500e-02
-1.178364e-01 -3.772129e-02 3.493000e-03
-1.145090e-01 -3.362374e-02 7.526000e-03
-1.126883e-01 -3.179044e-02 9.207000e-03
-1.058416e-01 -2.667547e-02 1.319000e-02
-5.666406e-02 -2.112902e-02 5.084000e-02
-5.619479e-02 -2.069362e-02 5.111700e-02
-5.569493e-02 -2.026122e-02 5.112300e-02
-5.520748e-02 -1.982808e-02 5.120900e-02
-5.474762e-02 -1.940983e-02 5.173400e-02
-5.429265e-02 -1.898982e-02 5.233000e-02
-5.381612e-02 -1.857512e-02 5.275200e-02
-5.336213e-02 -1.814096e-02 5.301300e-02
-5.286041e-02 -1.771496e-02 5.320400e-02
-5.237476e-02 -1.728638e-02 5.346500e-02
-5.191247e-02 -1.686252e-02 5.379400e-02
-5.142176e-02 -1.643305e-02 5.393400e-02
-5.092336e-02 -1.599992e-02 5.393600e-02
-5.043508e-02 -1.556856e-02 5.401000e-02
-4.995777e-02 -1.514470e-02 5.429400e-02
-4.948395e-02 -1.471635e-02 5.460800e-02
-4.899187e-02 -1.428621e-02 5.476600e-02
-4.848408e-02 -1.385094e-02 5.461600e-02
-4.793468e-02 -1.340165e-02 5.416600e-02
-4.737435e-02 -1.294689e-02 5.371600e-02
-4.686536e-02 -1.251359e-02 5.348800e-02
-4.636043e-02 -1.208031e-02 5.334700e-02
-4.585651e-02 -1.164790e-02 5.320300e-02
-4.533012e-02 -1.120554e-02 5.299300e-02
-4.483153e-02 -1.077524e-02 5.283100e-02
-4.433612e-02 -1.034471e-02 5.281700e-02
-4.381417e-02 -9.902183e-03 5.274300e-02
-4.332996e-02 -9.478349e-03 5.267900e-02
-1.037496e-01 -2.865033e-02 3.486300e-02
-1.042915e-01 -2.909657e-02 3.480000e-02
-1.048105e-01 -2.957952e-02 3.501800e-02
-5.271714e-02 -3.452884e-03 -1.076900e-02
-1.081577e-01 -2.822829e-02 1.634400e-02
-1.363726e-01 -6.112165e-02 -5.684000e-03
-1.153568e-01 -4.297241e-02 3.414400e-02
-9.762123e-02 -2.746346e-02 4.100200e-02
-1.185573e-01 -4.504610e-02 3.293100e-02
-1.498648e-01 -6.679476e-02 5.220500e-02
-1.153605e-01 -3.437962e-02 1.548100e-02
-5.809127e-02 -3.713019e-03 1.015900e-02
-9.491293e-02 -2.581851e-02 4.101000e-02
-9.440270e-02 -2.538514e-02 4.073300e-02
-9.450691e-02 -2.067489e-02 2.809800e-02
-8.580455e-02 -1.563192e-02 2.281600e-02
-1.606015e-01 -6.215451e-02 1.840900e-02
-1.194987e-01 -4.050190e-02 2.096100e-02
-1.086725e-01 -3.016610e-02 2.846100e-02
-1.154747e-01 -3.443656e-02 1.258200e-02
-1.092513e-01 -2.909738e-02 1.849600e-02
-1.231486e-01 -4.392728e-02 6.262000e-03
-1.206102e-01 -4.075550e-02 9.352000e-03
-1.685390e-01 -5.660458e-02 -6.741000e-03
-1.616921e-01 -6.932796e-02 4.681700e-02
-2.860770e-02 2.283508e-03 3.170400e-02
-2.808368e-02 2.724320e-03 3.143300e-02
-2.761806e-02 3.141056e-03 3.161200e-02
-2.714358e-02 3.564971e-03 3.184500e-02
-2.666536e-02 3.991117e-03 3.209400e-02
-2.617885e-02 4.419947e-03 3.224000e-02
-2.568861e-02 4.851009e-03 3.237500e-02
-2.518844e-02 5.286669e-03 3.249200e-02
-2.468011e-02 5.724395e-03 3.248800e-02
-2.405266e-02 6.202282e-03 3.237700e-02
-1.583148e-01 -6.778461e-02 4.906000e-02
-9.433607e-02 -3.512543e-02 -2.759000e-02
-1.193407e-01 -4.357658e-02 -1.044300e-02
-1.604582e-01 -6.000841e-02 8.679000e-03
-8.643600e-02 -3.085677e-02 5.546300e-02
-9.921429e-02 -2.294110e-02 2.264600e-02
-1.726544e-01 -7.395608e-02 3.105700e-02
-6.809921e-02 -8.351142e-03 -5.801000e-03
-1.883710e-01 -7.676507e-02 -3.953800e-02
-8.335915e-02 -1.497564e-02 2.846000e-02
-8.654772e-02 -1.661952e-02 2.894400e-02
-1.542574e-01 -6.212734e-02 -4.581000e-03
-1.755981e-01 -7.198290e-02 -8.841000e-03
-1.197733e-01 -3.965018e-02 8.991000e-03
-1.683699e-01 -6.766859e-02 2.013000e-02
-1.713841e-01 -7.135648e-02 2.993200e-02
-1.164552e-01 -3.584513e-02 2.126200e-02
-1.656033e-01 -6.552820e-02 1.018100e-02
-1.164218e-01 -3.621972e-02 2.368300e-02
-8.520148e-02 -1.677765e-02 -8.754000e-03
-1.288150e-01 -4.775003e-02 1.377100e-02
-1.193470e-01 -3.923153e-02 6.465000e-03
-1.107595e-01 -3.157802e-02 2.744400e-02
-1.200832e-01 -4.081613e-02 3.265000e-03
-1.780806e-01 -7.179281e-02 -1.643600e-02
-7.092979e-02 -3.332200e-02 3.901800e-02
-7.046577e-02 -3.290515e-02 3.945500e-02
-6.999304e-02 -3.247625e-02 3.980200e-02
-6.949797e-02 -3.204351e-02 3.993700e-02
-6.899041e-02 -3.160745e-02 3.997500e-02
-6.849051e-02 -3.117302e-02 3.994900e-02
-6.798381e-02 -3.073721e-02 3.979700e-02
-6.745979e-02 -3.029640e-02 3.955300e-02
-6.694634e-02 -2.986123e-02 3.927200e-02
-6.639344e-02 -2.940891e-02 3.880100e-02
-6.584974e-02 -2.896155e-02 3.830200e-02
-6.532826e-02 -2.852493e-02 3.790000e-02
-6.479771e-02 -2.808397e-02 3.751500e-02
-6.427487e-02 -2.764667e-02 3.711500e-02
-6.372943e-02 -2.719881e-02 3.664900e-02
-6.321488e-02 -2.676419e-02 3.642100e-02
-6.272275e-02 -2.633749e-02 3.641600e-02
-6.227334e-02 -2.591880e-02 3.700900e-02
-1.190135e-01 -4.150469e-02 2.397900e-02
-1.030733e-01 -2.544708e-02 2.516300e-02
-1.744549e-01 -7.397992e-02 2.343000e-02
-1.570488e-01 -7.254776e-02 2.125600e-02
-1.233908e-01 -5.806953e-02 -1.055600e-02
-1.175355e-01 -3.725223e-02 3.989000e-03
-1.149421e-01 -3.407929e-02 7.099000e-03
-1.121808e-01 -3.132841e-02 9.608000e-03
-1.065812e-01 -2.714303e-02 1.286700e-02
-1.004699e-01 -2.336446e-02 1.543600e-02
-5.792407e-02 -2.149621e-02 5.117100e-02
-5.742062e-02 -2.104921e-02 5.137900e-02
-5.693820e-02 -2.061493e-02 5.144200e-02
-5.645133e-02 -2.019379e-02 5.175000e-02
-1.706685e-01 -5.976772e-02 -6.836000e-03
-5.555899e-02 -1.935999e-02 5.307400e-02
-5.510091e-02 -1.893129e-02 5.338700e-02
-5.459973e-02 -1.850775e-02 5.370500e-02
-5.416037e-02 -1.808676e-02 5.425000e-02
-5.366880e-02 -1.765705e-02 5.437900e-02
-5.318079e-02 -1.722692e-02 5.433700e-02
-5.264542e-02 -1.678427e-02 5.416200e-02
-5.210048e-02 -1.633684e-02 5.389100e-02
-5.162044e-02 -1.591161e-02 5.378600e-02
-5.113797e-02 -1.548828e-02 5.400300e-02
-5.065975e-02 -1.506213e-02 5.422900e-02
-5.016478e-02 -1.462797e-02 5.447700e-02
-4.969665e-02 -1.420156e-02 5.458900e-02
-4.917500e-02 -1.376230e-02 5.436700e-02
-4.863936e-02 -1.331842e-02 5.402100e-02
-4.810195e-02 -1.287201e-02 5.382300e-02
-4.761128e-02 -1.244458e-02 5.365900e-02
-4.708690e-02 -1.200395e-02 5.343300e-02
-4.657191e-02 -1.156545e-02 5.332600e-02
-4.604875e-02 -1.112489e-02 5.309900e-02
-4.554283e-02 -1.069074e-02 5.296600e-02
-4.501468e-02 -1.024585e-02 5.276700e-02
-4.451535e-02 -9.815920e-03 5.260400e-02
-1.156049e-01 -4.246928e-02 3.344200e-02
-1.150792e-01 -3.855754e-02 3.092800e-02
-1.146082e-01 -3.813462e-02 3.119200e-02
-1.140971e-01 -3.769350e-02 3.193100e-02
-1.747684e-01 -7.016635e-02 -5.397300e-02
-1.210945e-01 -4.193195e-02 1.681700e-02
-1.158708e-01 -4.341004e-02 3.392800e-02
-1.163448e-01 -4.383352e-02 3.389500e-02
-1.150806e-01 -4.202724e-02 3.353300e-02
-1.032464e-01 -2.821552e-02 3.498000e-02
-8.238029e-02 -1.397542e-02 2.226400e-02
-1.691442e-01 -5.873764e-02 -3.204000e-03
-1.694312e-01 -6.745419e-02 -1.407600e-02
-1.703989e-01 -6.791832e-02 -1.430900e-02
-1.144142e-01 -3.865510e-02 3.245700e-02
-1.456604e-01 -6.847761e-02 3.928500e-02
-1.663055e-01 -6.642977e-02 -3.961100e-02
-7.137434e-02 -9.028990e-03 2.181000e-03
-1.539222e-01 -5.940103e-02 1.741100e-02
-7.546333e-02 -1.430366e-02 4.114800e-02
-1.293580e-01 -4.815333e-02 3.144000e-03
-1.134637e-01 -3.780394e-02 3.322700e-02
-1.616496e-01 -6.442264e-02 3.555100e-02
-7.109312e-02 -8.745448e-03 9.164000e-03
-1.549421e-01 -7.140181e-02 3.026200e-02
-1.496204e-01 -6.585355e-02 5.328200e-02
-2.928635e-02 2.383779e-03 3.143000e-02
-2.879718e-02 2.809912e-03 3.136800e-02
-2.834299e-02 3.220752e-03 3.160900e-02
-2.786764e-02 3.644916e-03 3.184600e-02
-2.738050e-02 4.074795e-03 3.206300e-02
-2.689302e-02 4.502460e-03 3.211800e-02
-2.639695e-02 4.936070e-03 3.224000e-02
-2.589951e-02 5.370364e-03 3.235000e-02
-2.539132e-02 5.807475e-03 3.233000e-02
-2.474240e-02 6.301951e-03 3.209200e-02
-1.540066e-01 -6.682962e-02 5.216000e-02
-1.544827e-01 -6.725342e-02 5.210900e-02
-1.549979e-01 -6.769314e-02 5.190700e-02
-9.835988e-02 -5.077965e-02 1.178500e-02
-1.822020e-01 -7.442710e-02 -2.337800e-02
-1.300320e-01 -4.861954e-02 2.805000e-03
-9.998721e-02 -2.341797e-02 2.233100e-02
-9.284801e-02 -2.406974e-02 3.958900e-02
-6.668195e-02 -7.005266e-03 1.415900e-02
-1.568971e-01 -4.802287e-02 -2.574700e-02
-7.597478e-02 -1.091359e-02 1.416600e-02
-1.712616e-01 -5.595293e-02 -1.230000e-02
-1.757131e-01 -7.240147e-02 -9.363000e-03
-1.692396e-01 -6.125328e-02 -6.160000e-04
-9.017545e-02 -2.810323e-02 4.852700e-02
-1.129042e-01 -5.406688e-02 3.991500e-02
-7.448785e-02 -3.697087e-02 1.144000e-02
-1.129208e-01 -3.465280e-02 3.024800e-02
-1.685818e-01 -6.786862e-02 2.140800e-02
-8.780424e-02 -2.603770e-02 4.872800e-02
-1.618864e-01 -6.411025e-02 3.394500e-02
-1.195982e-01 -3.968307e-02 5.984000e-03
-1.073219e-01 -2.922197e-02 2.914600e-02
-1.198044e-01 -4.031419e-02 3.783000e-03
-1.210499e-01 -4.115926e-02 1.190600e-02
-1.741785e-01 -7.354100e-02 2.385200e-02
-7.169805e-02 -3.325683e-02 3.966800e-02
-7.122686e-02 -3.283127e-02 4.004900e-02
-7.073479e-02 -3.240113e-02 4.019700e-02
-7.024624e-02 -3.196853e-02 4.028100e-02
-6.972856e-02 -3.153070e-02 4.020300e-02
-6.921890e-02 -3.109432e-02 4.005200e-02
-6.868978e-02 -3.065060e-02 3.982300e-02
-6.818612e-02 -3.021941e-02 3.952400e-02
-6.764538e-02 -2.977262e-02 3.914900e-02
-6.709758e-02 -2.932321e-02 3.867200e-02
-6.658516e-02 -2.889094e-02 3.825400e-02
-6.606942e-02 -2.845829e-02 3.782900e-02
-6.550819e-02 -2.800125e-02 3.738400e-02
-6.497551e-02 -2.755794e-02 3.701600e-02
-6.446579e-02 -2.712501e-02 3.672200e-02
-6.395603e-02 -2.669005e-02 3.661000e-02
-6.349954e-02 -2.627421e-02 3.714900e-02
-1.198320e-01 -4.128054e-02 -3.340000e-04
-1.201908e-01 -4.169126e-02 -7.010000e-04
-1.700340e-01 -5.799629e-02 -1.300100e-02
-1.238649e-01 -5.845264e-02 -9.568000e-03
-1.172532e-01 -3.681076e-02 4.450000e-03
-1.153428e-01 -3.454282e-02 6.655000e-03
-1.116732e-01 -3.086779e-02 1.001200e-02
-1.073310e-01 -2.761438e-02 1.254700e-02
-9.968837e-02 -2.288916e-02 1.575600e-02
-5.959781e-02 -2.224871e-02 5.099000e-02
-5.914112e-02 -2.183571e-02 5.150600e-02
-5.865654e-02 -2.140455e-02 5.173400e-02
-5.816727e-02 -2.097983e-02 5.188500e-02
-5.772377e-02 -2.057526e-02 5.254400e-02
-5.729151e-02 -2.015140e-02 5.345500e-02
-5.683363e-02 -1.971987e-02 5.375100e-02
-5.634557e-02 -1.930070e-02 5.418400e-02
-5.591691e-02 -1.888597e-02 5.484200e-02
-5.543640e-02 -1.845483e-02 5.508600e-02
-5.490922e-02 -1.801628e-02 5.501800e-02
-5.438580e-02 -1.757448e-02 5.493200e-02
-5.390189e-02 -1.714640e-02 5.489200e-02
-5.334660e-02 -1.669801e-02 5.432300e-02
-5.281113e-02 -1.625678e-02 5.401800e-02
-5.235512e-02 -1.583387e-02 5.413000e-02
-5.186286e-02 -1.540655e-02 5.445100e-02
-5.140785e-02 -1.498451e-02 5.488300e-02
-5.092331e-02 -1.455538e-02 5.497800e-02
-5.044286e-02 -1.412830e-02 5.507700e-02
-4.992887e-02 -1.369067e-02 5.510900e-02
-4.941574e-02 -1.325329e-02 5.499300e-02
-4.891405e-02 -1.282181e-02 5.472300e-02
-4.842748e-02 -1.239643e-02 5.455900e-02
-4.786149e-02 -1.194177e-02 5.399200e-02
-4.730826e-02 -1.149165e-02 5.352900e-02
-4.677968e-02 -1.105039e-02 5.317600e-02
-4.618676e-02 -1.054841e-02 5.270200e-02
-4.569648e-02 -1.011532e-02 5.244700e-02
-1.110313e-01 -3.565696e-02 3.549300e-02
-1.115255e-01 -3.608946e-02 3.512100e-02
-1.119978e-01 -3.651244e-02 3.473000e-02
-1.125093e-01 -3.695338e-02 3.412700e-02
-1.130079e-01 -3.738571e-02 3.363700e-02
-1.353015e-01 -5.911707e-02 5.183500e-02
-1.168763e-01 -4.427332e-02 3.382900e-02
-1.173747e-01 -4.470300e-02 3.407000e-02
-1.259973e-01 -5.150840e-02 3.410300e-02
-1.155741e-01 -3.899108e-02 3.030700e-02
-1.027725e-01 -2.779062e-02 3.501700e-02
-1.022555e-01 -2.735384e-02 3.510600e-02
-1.017466e-01 -2.691912e-02 3.509200e-02
-1.060942e-01 -3.481428e-02 3.947300e-02
-8.272385e-02 -1.418545e-02 2.354500e-02
-1.267438e-01 -4.679939e-02 -1.963000e-03
-1.309094e-01 -4.935289e-02 1.399500e-02
-1.679145e-01 -6.755476e-02 2.592800e-02
-1.145485e-01 -3.352341e-02 1.340200e-02
-1.111070e-01 -3.049449e-02 1.740900e-02
-1.222750e-01 -4.301578e-02 7.103000e-03
-1.179847e-01 -3.712528e-02 1.297100e-02
-1.183404e-01 -3.757378e-02 1.253200e-02
-6.670609e-02 -7.834669e-03 -5.808000e-03
-1.079130e-01 -2.816142e-02 1.919300e-02
-1.696552e-01 -5.920068e-02 -3.629000e-03
-1.657466e-01 -5.866675e-02 1.571000e-03
-2.998545e-02 2.475836e-03 3.119800e-02
-2.951944e-02 2.886912e-03 3.114000e-02
-2.906212e-02 3.300965e-03 3.140300e-02
-2.859324e-02 3.721532e-03 3.165300e-02
-2.809047e-02 4.157942e-03 3.183200e-02
-2.760309e-02 4.587021e-03 3.197600e-02
-2.710615e-02 5.020882e-03 3.209800e-02
-2.660389e-02 5.456859e-03 3.212100e-02
-2.594908e-02 5.950437e-03 3.207800e-02
-2.546538e-02 6.366331e-03 3.169200e-02
-6.095099e-02 -4.802109e-03 1.416200e-02
-6.085333e-02 -4.722533e-03 5.179000e-03
-1.554787e-01 -6.811801e-02 5.152800e-02
-1.559247e-01 -6.852475e-02 5.111200e-02
-1.463783e-01 -6.521179e-02 5.125900e-02
-1.386092e-01 -6.486162e-02 7.352000e-03
-7.294224e-02 -9.664337e-03 1.817100e-02
-1.625293e-01 -6.787597e-02 -1.685400e-02
-1.641440e-01 -6.528389e-02 -2.658400e-02
-1.476098e-01 -6.411585e-02 5.279100e-02
-1.708224e-01 -5.550456e-02 -1.303800e-02
-1.004503e-01 -2.478603e-02 3.079700e-02
-1.149209e-01 -3.445190e-02 2.244800e-02
-1.223766e-01 -5.828427e-02 3.492800e-02
-1.187527e-01 -5.645783e-02 3.796700e-02
-1.179907e-01 -4.225993e-02 2.867100e-02
-1.134592e-01 -3.510758e-02 2.985600e-02
-1.593313e-01 -6.175145e-02 2.573300e-02
-1.685287e-01 -6.922566e-02 3.301400e-02
-1.627247e-01 -6.458925e-02 3.365800e-02
-1.199518e-01 -4.012984e-02 5.545000e-03
-1.701654e-01 -6.936152e-02 1.221000e-03
-1.203836e-01 -4.126427e-02 2.805000e-03
-1.020690e-01 -2.591782e-02 3.139700e-02
-1.729038e-01 -7.213205e-02 2.506400e-02
-7.293371e-02 -3.361844e-02 3.982700e-02
-7.245415e-02 -3.318614e-02 4.017700e-02
-7.195985e-02 -3.275506e-02 4.032100e-02
-7.147194e-02 -3.232351e-02 4.042300e-02
-7.098516e-02 -3.189345e-02 4.051700e-02
-7.045272e-02 -3.144934e-02 4.048100e-02
-6.995955e-02 -3.101974e-02 4.028300e-02
-6.943457e-02 -3.058010e-02 3.989800e-02
-6.888586e-02 -3.012841e-02 3.955900e-02
-6.835442e-02 -2.968516e-02 3.918400e-02
-6.780675e-02 -2.923637e-02 3.869300e-02
-6.730703e-02 -2.881210e-02 3.824500e-02
-6.678409e-02 -2.838372e-02 3.776800e-02
-6.623701e-02 -2.792644e-02 3.734900e-02
-6.569208e-02 -2.747901e-02 3.687700e-02
-6.518086e-02 -2.704478e-02 3.676700e-02
-6.472706e-02 -2.662828e-02 3.727600e-02
-6.433831e-02 -2.625712e-02 3.825200e-02
-1.180883e-01 -3.815197e-02 3.038000e-03
-1.243853e-01 -5.887682e-02 -8.561000e-03
-1.168986e-01 -3.636313e-02 4.892000e-03
-1.157619e-01 -3.499375e-02 6.229000e-03
-1.111146e-01 -3.041008e-02 1.038500e-02
-1.080219e-01 -2.808171e-02 1.220700e-02
-9.886117e-02 -2.241279e-02 1.606200e-02
-8.995656e-02 -1.762666e-02 1.892500e-02
-6.083898e-02 -2.260210e-02 5.145300e-02
-6.039532e-02 -2.219488e-02 5.209400e-02
-5.992530e-02 -2.177283e-02 5.246500e-02
-5.946416e-02 -2.134497e-02 5.280500e-02
-5.903094e-02 -2.092980e-02 5.362400e-02
-5.855434e-02 -2.051104e-02 5.415200e-02
-5.808301e-02 -2.008486e-02 5.449900e-02
-5.763780e-02 -1.966680e-02 5.508100e-02
-5.716236e-02 -1.924405e-02 5.548200e-02
-5.665267e-02 -1.881315e-02 5.554900e-02
-5.619350e-02 -1.838500e-02 5.565900e-02
-5.567198e-02 -1.794635e-02 5.573800e-02
-5.516765e-02 -1.751209e-02 5.559900e-02
-5.463141e-02 -1.706919e-02 5.511600e-02
-5.416515e-02 -1.664390e-02 5.471900e-02
-5.369352e-02 -1.620695e-02 5.536500e-02
-5.322870e-02 -1.579391e-02 5.585800e-02
-5.271848e-02 -1.536054e-02 5.604100e-02
-5.222418e-02 -1.492946e-02 5.602100e-02
-5.171578e-02 -1.449518e-02 5.605100e-02
-5.120489e-02 -1.405874e-02 5.608400e-02
-5.070826e-02 -1.362814e-02 5.593400e-02
-5.019417e-02 -1.319192e-02 5.567800e-02
-4.954243e-02 -1.270501e-02 5.540900e-02
-9.714318e-02 -2.501346e-02 3.687900e-02
-1.193261e-01 -3.895240e-02 1.115900e-02
-1.113441e-01 -3.661731e-02 3.577700e-02
-1.033752e-01 -2.969952e-02 3.809300e-02
-1.511349e-01 -7.082814e-02 2.029000e-02
-1.171715e-01 -4.117302e-02 2.884700e-02
-1.167790e-01 -4.078055e-02 2.940400e-02
-1.163155e-01 -4.035865e-02 3.004400e-02
-1.158405e-01 -3.993227e-02 3.067900e-02
-1.153805e-01 -3.951341e-02 3.119700e-02
-1.225526e-01 -4.851319e-02 3.337700e-02
-1.235923e-01 -4.938807e-02 3.319000e-02
-1.178792e-01 -4.513991e-02 3.443000e-02
-1.184091e-01 -4.557982e-02 3.459600e-02
-1.255712e-01 -5.110883e-02 3.381100e-02
-1.159800e-01 -3.938915e-02 2.976200e-02
-1.164819e-01 -3.982531e-02 2.914200e-02
-1.169116e-01 -4.023340e-02 2.848600e-02
-1.174485e-01 -4.068485e-02 2.763400e-02
