-4.506780e+01 -3.676970e+01 3.158820e+01
-2.651800e+01 -3.290350e+01 3.824600e+01
-1.691450e+01 -3.079900e+01 5.310700e+01
-1.138300e+01 -2.914700e+01 5.798400e+01
-9.167220e+00 -2.912740e+01 5.833090e+01
-1.064470e+01 -2.914070e+01 5.809470e+01
-1.431300e+01 -3.069700e+01 5.606000e+01
-1.530020e+01 -3.098230e+01 5.489680e+01
-1.285780e+01 -2.917360e+01 5.732260e+01
-1.433430e+01 -2.921200e+01 5.632000e+01
-2.149630e+01 -3.090050e+01 4.713370e+01
-2.423350e+01 -3.279850e+01 4.238550e+01
-2.501070e+01 -3.300730e+01 4.101630e+01
-2.541100e+01 -3.359900e+01 3.970350e+01
-2.293470e+01 -3.264400e+01 4.465930e+01
-1.956130e+01 -3.089800e+01 4.962600e+01
-1.849580e+01 -3.101320e+01 5.095680e+01
-2.033600e+01 -3.089670e+01 4.863630e+01
-3.516980e+01 -3.494380e+01 2.855520e+01
-4.082240e+01 -3.511900e+01 3.143840e+01
-4.308100e+01 -3.532510e+01 3.176060e+01
-3.770700e+01 -3.498550e+01 3.042630e+01
-3.670720e+01 -3.533220e+01 2.945100e+01
-3.902800e+01 -3.518830e+01 3.094500e+01
-3.039200e+01 -3.442500e+01 2.806400e+01
-2.803500e+01 -3.346100e+01 3.329500e+01
-2.726850e+01 -3.296950e+01 3.655550e+01
-2.941200e+01 -3.306070e+01 2.904480e+01
-2.880200e+01 -3.278900e+01 3.099900e+01
-3.305880e+01 -3.521480e+01 2.754520e+01
-3.444270e+01 -3.571870e+01 2.770300e+01
-3.125480e+01 -3.528890e+01 2.769940e+01
-6.337700e+01 -4.112400e+01 2.333720e+01
-7.283330e+01 -4.295200e+01 1.069570e+01
-7.764230e+01 -4.305200e+01 1.301330e+00
-7.948700e+01 -4.322400e+01 -4.108000e+00
-8.046100e+01 -4.449750e+01 -7.662500e+00
-8.143700e+01 -4.465400e+01 -1.131450e+01
-8.238200e+01 -4.443400e+01 -1.477800e+01
-7.856730e+01 -4.314570e+01 -1.501330e+00
-7.485500e+01 -4.301850e+01 7.012750e+00
-7.337300e+01 -4.347700e+01 9.904000e+00
-7.588370e+01 -4.288170e+01 5.580330e+00
-7.677500e+01 -4.297700e+01 3.199330e+00
-6.749770e+01 -4.109050e+01 1.941770e+01
-6.531850e+01 -4.117950e+01 2.169250e+01
-6.473300e+01 -4.059100e+01 2.229950e+01
-6.641560e+01 -4.068880e+01 2.078960e+01
-7.071000e+01 -4.126250e+01 1.498470e+01
-7.173250e+01 -4.302200e+01 1.307750e+01
-6.909620e+01 -4.117550e+01 1.746650e+01
-6.849050e+01 -4.057200e+01 1.835600e+01
-7.009500e+01 -4.065500e+01 1.617600e+01
-5.494900e+01 -3.911880e+01 2.909800e+01
-4.915060e+01 -3.899890e+01 3.065450e+01
-4.695060e+01 -3.678360e+01 3.146720e+01
-5.225500e+01 -3.834400e+01 3.008100e+01
-5.313940e+01 -3.920860e+01 2.965890e+01
-5.097590e+01 -3.921030e+01 3.030070e+01
-5.900800e+01 -4.098120e+01 2.647800e+01
-6.106900e+01 -4.107800e+01 2.522500e+01
-6.222300e+01 -4.109900e+01 2.426100e+01
-5.992400e+01 -4.144600e+01 2.589600e+01
-5.726100e+01 -4.104480e+01 2.747300e+01
-5.611900e+01 -4.103550e+01 2.817100e+01
-5.498050e+01 -4.103030e+01 2.864770e+01
