1.626990e+00 -6.631390e-02 -6.900990e-02
-1.340920e+00 8.373520e-01 3.338610e-01
9.024650e-01 -1.657100e+00 -8.489450e-02
-1.380860e+00 -1.656650e+00 1.470890e-01
-2.190450e+00 -9.325560e-02 2.157760e-01
3.206250e+00 5.384770e-01 -5.320120e-01
3.141640e+00 -1.819740e+00 -9.136500e-01
7.740260e-01 -3.720850e+00 -7.012770e-01
-3.766650e+00 5.084440e-01 -2.998140e-01
-1.194340e+00 -3.725660e+00 -5.170600e-01
-3.611460e+00 -1.777660e+00 -4.337710e-01
2.414160e+00 -3.454460e+00 -1.047610e+00
-2.897540e+00 -3.550950e+00 -8.471490e-01
1.666660e+00 -4.329810e+00 -1.272550e+00
-2.112740e+00 -4.355120e+00 -9.730350e-01
4.607030e+00 -1.612260e+00 -1.745810e+00
5.225170e+00 4.788770e-01 -1.684340e+00
3.130560e+00 -4.110690e+00 -2.046120e+00
-4.463730e+00 -2.888650e+00 -1.159400e+00
-5.518160e+00 -1.546120e+00 -9.491250e-01
-3.822390e+00 -4.275670e+00 -1.637830e+00
7.563760e-01 -5.675880e+00 -2.011270e+00
-1.346920e+00 -5.733080e+00 -1.720110e+00
-5.990640e+00 3.030370e-01 -1.195410e+00
4.829350e+00 -3.354670e+00 -2.817810e+00
5.676640e+00 -1.873220e+00 -2.766280e+00
6.037630e+00 -6.363140e-01 -2.603110e+00
2.364470e+00 -5.560280e+00 -2.877510e+00
-3.277560e+00 -5.536630e+00 -2.222860e+00
-6.531660e+00 -2.020400e+00 -1.588770e+00
-6.822690e+00 -7.048950e-01 -1.548210e+00
-5.842130e+00 -3.501600e+00 -2.060950e+00
3.798350e+00 -5.021810e+00 -3.927770e+00
7.211390e+00 1.802970e-01 -3.572540e+00
6.714060e+00 -1.845770e+00 -4.180010e+00
-3.696570e+00 -6.447470e+00 -3.523630e+00
-7.933070e+00 -7.932240e-02 -2.601380e+00
-7.955960e+00 -1.811930e+00 -2.576060e+00
5.941340e+00 -3.738560e+00 -5.214670e+00
-6.191250e+00 -4.980230e+00 -3.465670e+00
1.525730e+00 -6.981750e+00 -5.040800e+00
7.395800e+00 -1.928660e+00 -5.259230e+00
2.952960e+00 -6.454910e+00 -6.193140e+00
8.116190e+00 -5.179450e-01 -5.252100e+00
-7.811880e+00 -3.999560e+00 -3.816780e+00
5.146010e+00 -4.935270e+00 -6.676030e+00
-1.496170e+00 -7.960860e+00 -5.426630e+00
-5.307110e+00 -6.399000e+00 -5.090510e+00
-9.180360e+00 -2.673250e-01 -4.044610e+00
-8.948580e+00 -2.508550e+00 -4.287320e+00
9.036640e+00 -2.705250e-01 -6.397530e+00
7.667800e+00 -3.110860e+00 -7.532870e+00
8.780810e+00 -1.788630e+00 -7.121800e+00
-9.959500e+00 -1.803620e+00 -5.225280e+00
-1.037330e+01 -2.827160e-01 -5.436290e+00
-4.675540e+00 -7.839280e+00 -7.543500e+00
-8.867480e+00 -4.944050e+00 -6.590690e+00
-1.042830e+01 -3.005870e+00 -6.603700e+00
-7.772560e+00 -6.418960e+00 -7.741790e+00
9.828960e+00 -8.611770e-01 -8.244760e+00
1.019020e+01 4.215260e-01 -7.930700e+00
-1.144150e+01 -9.712250e-01 -7.035690e+00
1.015540e+01 -1.580880e+00 -9.537710e+00
9.381330e+00 -2.865110e+00 -1.037170e+01
1.088500e+01 4.176230e-02 -9.448830e+00
-1.172200e+01 -3.225980e+00 -8.632860e+00
-1.285740e+01 -1.232100e+00 -9.036700e+00
1.144200e+01 -9.962510e-01 -1.104390e+01
-1.106150e+01 -4.912270e+00 -1.043380e+01
-1.255680e+01 -3.102250e+00 -9.501020e+00
-1.343720e+01 6.686110e-01 -1.011920e+01
3.312870e+00 -8.566360e+00 -1.420490e+01
9.215700e+00 -4.253290e+00 -1.379260e+01
5.515110e+00 -7.013240e+00 -1.465040e+01
1.076210e+01 -3.329140e+00 -1.333130e+01
-1.041670e+01 -6.273980e+00 -1.250960e+01
1.191190e+01 -2.029760e+00 -1.292860e+01
-1.306540e+01 -4.039510e+00 -1.134790e+01
7.658440e+00 -5.489510e+00 -1.532350e+01
-1.399440e+01 -2.059950e+00 -1.124430e+01
-1.198240e+01 -5.578870e+00 -1.268860e+01
-1.432440e+01 2.082440e-01 -1.161400e+01
4.684560e+00 -8.277530e+00 -1.624420e+01
1.301740e+01 -1.053420e+00 -1.376940e+01
-4.344050e+00 -1.065970e+01 -1.512920e+01
1.330070e+01 6.862860e-01 -1.377130e+01
1.223730e+01 -2.850840e+00 -1.459840e+01
-1.431870e+01 -3.182670e+00 -1.237310e+01
-7.445170e+00 -9.220920e+00 -1.514480e+01
1.144600e+01 -3.834470e+00 -1.533470e+01
-1.394870e+01 -4.520540e+00 -1.294880e+01
9.853440e+00 -5.031950e+00 -1.674190e+01
2.738140e+00 -1.015490e+01 -1.710390e+01
5.359940e+00 -8.577560e+00 -1.743820e+01
-1.522450e+01 -2.896280e-01 -1.323350e+01
1.335880e+01 -1.854500e+00 -1.533150e+01
8.314750e-01 -1.103480e+01 -1.720980e+01
-1.519050e+01 -2.734920e+00 -1.346870e+01
4.454920e+00 -9.752320e+00 -1.756200e+01
-1.365230e+01 -5.748080e+00 -1.459870e+01
1.138530e+01 -4.667700e+00 -1.691930e+01
6.502680e+00 -8.138360e+00 -1.830980e+01
-9.876190e+00 -8.142740e+00 -1.666940e+01
1.421950e+01 -2.383090e-02 -1.592520e+01
2.283370e+00 -1.125750e+01 -1.820450e+01
6.067230e+00 -9.602580e+00 -1.835680e+01
-6.812290e+00 -1.060580e+01 -1.750960e+01
-1.143160e+01 -7.427180e+00 -1.673640e+01
-5.285980e+00 -1.136780e+01 -1.764710e+01
1.172950e+01 -5.377800e+00 -1.804010e+01
1.446230e+01 -1.058520e+00 -1.684790e+01
8.219900e+00 -6.652300e+00 -1.949330e+01
-1.526340e+01 -4.783520e+00 -1.526870e+01
1.289760e+01 -4.462640e+00 -1.765670e+01
1.383180e+01 -2.928390e+00 -1.729880e+01
-1.615000e+01 -8.828370e-01 -1.522990e+01
4.723840e+00 -1.114040e+01 -1.875420e+01
-3.018950e-02 -1.264010e+01 -1.865740e+01
-1.609500e+01 -3.301310e+00 -1.549710e+01
-2.320810e+00 -1.274500e+01 -1.876820e+01
2.239190e+00 -1.263440e+01 -1.888890e+01
9.350600e+00 -6.717040e+00 -1.981730e+01
7.467800e+00 -8.425480e+00 -2.001840e+01
-1.415000e+01 -6.708750e+00 -1.676240e+01
6.771870e+00 -1.069010e+01 -1.947330e+01
-6.898930e+00 -1.150720e+01 -1.891320e+01
-4.248410e+00 -1.252530e+01 -1.916620e+01
-8.462890e+00 -1.032240e+01 -1.917980e+01
4.336070e+00 -1.266460e+01 -1.950100e+01
-9.258760e+00 -9.640170e+00 -1.948020e+01
-1.573110e+01 -5.598810e+00 -1.688930e+01
8.252570e+00 -1.001160e+01 -2.004130e+01
-1.232080e+01 -7.988030e+00 -1.882990e+01
1.439050e+01 -3.974280e+00 -1.882100e+01
1.127090e+01 -6.764380e+00 -2.008590e+01
8.858940e+00 -8.482030e+00 -2.070110e+01
1.360790e+01 -5.327140e+00 -1.934380e+01
1.512820e+01 -8.788250e-01 -1.914730e+01
-1.703270e+01 -1.405190e+00 -1.727680e+01
1.512340e+01 -9.113620e-01 -1.926270e+01
-2.391550e+00 -1.420140e+01 -1.974100e+01
2.175080e+00 -1.410380e+01 -1.989210e+01
-1.277710e-01 -1.419810e+01 -2.000190e+01
-4.774720e+00 -1.373280e+01 -1.977490e+01
-1.697950e+01 -3.820180e+00 -1.750040e+01
1.085860e+01 -7.828430e+00 -2.099160e+01
-7.757770e+00 -1.219240e+01 -2.036950e+01
1.511460e+01 -3.468370e+00 -1.990380e+01
1.279630e+01 -6.896980e+00 -2.062890e+01
4.627300e+00 -1.400490e+01 -2.048500e+01
-8.558130e+00 -1.154910e+01 -2.081890e+01
-1.716450e+01 6.546890e-01 -1.856320e+01
-1.353510e+01 -8.267630e+00 -1.979470e+01
7.445340e+00 -1.199040e+01 -2.132170e+01
1.503730e+01 6.378060e-01 -2.085530e+01
8.566050e+00 -1.086140e+01 -2.164610e+01
-6.789280e+00 -1.370990e+01 -2.066170e+01
-1.622730e+01 -6.522890e+00 -1.892730e+01
-2.444150e+00 -1.600750e+01 -2.051380e+01
6.460620e+00 -1.353660e+01 -2.149240e+01
-1.765720e-01 -1.599810e+01 -2.075000e+01
2.126450e+00 -1.593110e+01 -2.072710e+01
-4.698670e+00 -1.606180e+01 -2.037920e+01
-1.095700e+01 -9.595380e+00 -2.212980e+01
9.654750e+00 -9.964020e+00 -2.277380e+01
1.119510e+01 -8.817500e+00 -2.258500e+01
4.420170e+00 -1.593980e+01 -2.096970e+01
-6.234220e+00 -1.581050e+01 -2.069520e+01
-1.794820e+01 -2.066520e+00 -1.993420e+01
-7.826140e+00 -1.448750e+01 -2.149370e+01
-1.788740e+01 -4.425030e+00 -1.988860e+01
-1.022450e+01 -1.054350e+01 -2.280910e+01
6.181780e+00 -1.555740e+01 -2.165130e+01
1.349760e+01 -7.502610e+00 -2.276090e+01
-1.478950e+01 -8.709560e+00 -2.138650e+01
2.500830e+00 -1.760400e+01 -2.102580e+01
-9.667610e+00 -1.220620e+01 -2.271380e+01
1.464750e+01 -6.259410e+00 -2.268930e+01
7.399910e+00 -1.432560e+01 -2.255130e+01
-1.805430e+01 -7.643580e-01 -2.106270e+01
-7.251190e+00 -1.651730e+01 -2.125710e+01
-9.037380e+00 -1.437650e+01 -2.239730e+01
-2.000180e-01 -1.853290e+01 -2.124400e+01
-2.482920e+00 -1.858150e+01 -2.115220e+01
8.458780e+00 -1.232700e+01 -2.400710e+01
2.005840e+00 -1.869100e+01 -2.119340e+01
-1.792250e+01 -6.303360e+00 -2.105160e+01
-1.677540e+01 -7.651310e+00 -2.173850e+01
4.417930e+00 -1.846170e+01 -2.141410e+01
-4.745860e+00 -1.867080e+01 -2.113440e+01
1.268210e+01 -8.719650e+00 -2.416610e+01
-1.184000e+01 -1.034400e+01 -2.384970e+01
6.928460e+00 -1.653860e+01 -2.237000e+01
-1.875170e+01 -4.838320e+00 -2.149030e+01
1.572080e+01 -4.290800e+00 -2.424850e+01
8.408300e+00 -1.445550e+01 -2.393720e+01
1.567720e+01 -2.410980e+00 -2.465140e+01
-8.954210e+00 -1.662720e+01 -2.244700e+01
-1.819440e+01 -5.369090e-02 -2.297470e+01
-7.039220e+00 -1.885610e+01 -2.147340e+01
-1.885370e+01 -2.689210e+00 -2.242010e+01
6.712170e+00 -1.863130e+01 -2.223130e+01
1.029370e+01 -1.080280e+01 -2.578940e+01
-1.028300e+01 -1.477400e+01 -2.371430e+01
2.144970e+00 -2.089920e+01 -2.135730e+01
-1.810490e-01 -2.098860e+01 -2.143280e+01
9.280580e+00 -1.262700e+01 -2.561600e+01
8.547360e+00 -1.657490e+01 -2.357660e+01
-2.491120e+00 -2.108530e+01 -2.150900e+01
-8.611910e+00 -1.868950e+01 -2.212250e+01
-1.232660e+01 -1.124520e+01 -2.513820e+01
4.465650e+00 -2.088630e+01 -2.152270e+01
-1.153260e+01 -1.274510e+01 -2.489350e+01
-1.348140e+01 -1.043950e+01 -2.498450e+01
-4.775390e+00 -2.111770e+01 -2.132800e+01
-1.002880e+01 -1.717910e+01 -2.302120e+01
9.381590e+00 -1.444480e+01 -2.524330e+01
8.236890e+00 -1.879280e+01 -2.294510e+01
-6.973020e+00 -2.113370e+01 -2.144960e+01
1.178690e+01 -1.024250e+01 -2.672700e+01
9.632420e+00 -1.610370e+01 -2.479580e+01
-1.150540e+01 -1.505550e+01 -2.460410e+01
6.775080e+00 -2.098590e+01 -2.202650e+01
-1.904720e+01 -8.653180e-01 -2.459970e+01
-9.627520e+00 -1.934730e+01 -2.252840e+01
-1.910160e-02 -2.309320e+01 -2.118380e+01
-2.460010e+00 -2.299160e+01 -2.115240e+01
1.005150e+01 -1.269540e+01 -2.687120e+01
2.213690e+00 -2.323190e+01 -2.112910e+01
-4.776100e+00 -2.305640e+01 -2.112500e+01
4.545770e+00 -2.318130e+01 -2.116930e+01
8.971410e+00 -1.903170e+01 -2.385300e+01
1.030040e+01 -1.489020e+01 -2.617930e+01
-1.145610e+01 -1.731860e+01 -2.410730e+01
8.285010e+00 -2.077140e+01 -2.279300e+01
-1.855740e+01 -7.693990e+00 -2.473420e+01
-7.080280e+00 -2.291820e+01 -2.129580e+01
-1.594850e-01 -2.482020e+01 -2.040980e+01
-1.280270e+01 -1.315700e+01 -2.625650e+01
1.467080e+01 4.739700e-01 -2.865390e+01
6.837620e+00 -2.290220e+01 -2.168110e+01
-1.976730e+01 -4.163900e+00 -2.500480e+01
-9.398390e+00 -2.118510e+01 -2.237900e+01
-2.403150e+00 -2.481610e+01 -2.048790e+01
2.290850e+00 -2.501540e+01 -2.033660e+01
-1.976570e+01 -4.976230e+00 -2.501760e+01
1.093500e+01 -1.147430e+01 -2.827610e+01
1.037890e+01 -1.710390e+01 -2.557070e+01
-1.131860e+01 -1.937720e+01 -2.345120e+01
-1.274720e+01 -1.537780e+01 -2.564490e+01
-1.595090e+01 -1.014420e+01 -2.653200e+01
-1.983580e+01 -3.541180e+00 -2.558980e+01
-4.643620e+00 -2.484940e+01 -2.072460e+01
1.546170e+01 -1.953150e+00 -2.880700e+01
4.616830e+00 -2.505020e+01 -2.068250e+01
9.023190e+00 -2.097860e+01 -2.357060e+01
-7.837120e+00 -2.362800e+01 -2.133860e+01
-6.320060e+00 -2.429660e+01 -2.110330e+01
-1.988550e+01 -2.858270e+00 -2.597210e+01
1.101690e+01 -1.514640e+01 -2.713440e+01
-1.981410e+01 -5.958060e+00 -2.561160e+01
1.093490e+01 -1.308540e+01 -2.832900e+01
-1.267740e+01 -1.758610e+01 -2.494890e+01
-1.445520e+01 -1.152870e+01 -2.737710e+01
1.036580e+01 -1.942160e+01 -2.495560e+01
-9.377960e+00 -2.310260e+01 -2.207090e+01
6.675890e+00 -2.472690e+01 -2.143300e+01
8.704820e+00 -2.283640e+01 -2.293020e+01
-1.386880e+01 -1.330120e+01 -2.738710e+01
-1.138050e+01 -2.114110e+01 -2.342230e+01
2.248460e+00 -2.687630e+01 -2.011300e+01
-5.496860e+00 -2.583350e+01 -2.088720e+01
6.506830e-03 -2.705520e+01 -2.010130e+01
-1.262010e+01 -1.942680e+01 -2.437040e+01
-2.195790e+00 -2.673310e+01 -2.040770e+01
1.113040e+01 -1.807370e+01 -2.622460e+01
-7.150360e+00 -2.526130e+01 -2.116640e+01
-1.378530e+01 -1.584000e+01 -2.649000e+01
4.501520e+00 -2.657710e+01 -2.064340e+01
1.115790e+01 -1.880990e+01 -2.601760e+01
-2.001860e+01 -2.050580e+00 -2.728110e+01
-1.759070e+01 -9.628840e+00 -2.737080e+01
1.052650e+01 -2.120840e+01 -2.449560e+01
1.237780e+01 -1.110330e+01 -2.989630e+01
1.195500e+01 -1.348530e+01 -2.924030e+01
6.177090e+00 -2.640640e+01 -2.127010e+01
1.429250e+01 -9.097270e+00 -2.999710e+01
-1.237690e+01 -2.151860e+01 -2.394320e+01
1.226430e+01 -1.557300e+01 -2.830890e+01
-1.392220e+01 -1.790830e+01 -2.599010e+01
-1.125910e+01 -2.329570e+01 -2.305750e+01
8.497180e+00 -2.523120e+01 -2.249700e+01
-2.526620e+00 -2.793450e+01 -2.072270e+01
-1.384140e+01 -1.968660e+01 -2.518000e+01
-9.353030e+00 -2.547000e+01 -2.191680e+01
1.048850e+01 -2.303090e+01 -2.412920e+01
-4.684520e+00 -2.749120e+01 -2.107560e+01
3.120350e+00 -2.799950e+01 -2.091490e+01
1.246520e+01 -1.757600e+01 -2.769740e+01
-2.014230e+01 -1.234690e+00 -2.856700e+01
-1.536510e+01 -1.238630e+01 -2.893950e+01
-1.501490e+01 -1.399490e+01 -2.848420e+01
-2.000500e+01 -7.437280e+00 -2.791420e+01
1.528220e+01 -1.560500e+00 -3.187210e+01
4.849680e+00 -2.788440e+01 -2.138360e+01
-1.495360e+01 -1.588080e+01 -2.782930e+01
1.491740e+01 4.961550e-01 -3.230720e+01
-6.917780e+00 -2.757700e+01 -2.148490e+01
-1.379440e+01 -2.159670e+01 -2.480400e+01
-1.232910e+01 -2.385300e+01 -2.362060e+01
1.290370e+01 -1.349770e+01 -3.062120e+01
1.280480e+01 -1.201180e+01 -3.127710e+01
1.315710e+01 -1.541770e+01 -2.962320e+01
6.636070e+00 -2.759540e+01 -2.204730e+01
1.261540e+01 -1.945810e+01 -2.743070e+01
-1.090220e+01 -2.572110e+01 -2.256590e+01
-1.520000e+01 -1.790550e+01 -2.730280e+01
1.273410e+01 -2.128120e+01 -2.632920e+01
-9.137380e+00 -2.727310e+01 -2.189920e+01
1.028220e+01 -2.543270e+01 -2.370680e+01
1.901890e-02 -2.944100e+01 -2.127030e+01
1.134790e+01 -2.411100e+01 -2.480730e+01
-1.650160e+01 -1.193590e+01 -3.003790e+01
-1.511530e+01 -1.969290e+01 -2.652880e+01
-2.028930e+01 -9.838580e-02 -3.009930e+01
8.340160e+00 -2.739200e+01 -2.280220e+01
-2.318200e+00 -2.956550e+01 -2.142650e+01
-4.272120e+00 -2.927460e+01 -2.162940e+01
2.340880e+00 -2.949890e+01 -2.174220e+01
4.266930e+00 -2.911200e+01 -2.203010e+01
-1.621040e+01 -1.419280e+01 -2.964170e+01
-1.895900e+01 -9.943520e+00 -2.975050e+01
1.332400e+01 -1.942990e+01 -2.829520e+01
-1.208690e+01 -2.593860e+01 -2.317830e+01
1.283500e+01 -2.350720e+01 -2.568860e+01
-1.644250e+01 -1.651030e+01 -2.879220e+01
1.141240e+01 -2.561560e+01 -2.448110e+01
5.416420e+00 -2.920240e+01 -2.244490e+01
-1.503980e+01 -2.193780e+01 -2.591240e+01
-1.414270e+01 -2.398190e+01 -2.462880e+01
-7.783920e+00 -2.876140e+01 -2.230720e+01
1.406610e+01 -1.160630e+01 -3.244020e+01
1.411490e+01 -1.406340e+01 -3.147100e+01
1.033890e+01 -2.699670e+01 -2.361460e+01
-1.707360e+01 -1.251040e+01 -3.061100e+01
1.437810e+01 -1.592530e+01 -3.061200e+01
1.488400e+01 -9.492230e+00 -3.299340e+01
-1.644970e+01 -1.819630e+01 -2.822470e+01
-1.704250e+01 -1.436920e+01 -3.018470e+01
-1.699920e+01 -1.580280e+01 -2.964770e+01
-9.492450e+00 -2.861090e+01 -2.270300e+01
1.480140e+01 -1.758680e+01 -3.005640e+01
-2.022670e+01 -9.052170e+00 -3.069930e+01
1.439720e+01 -2.180500e+01 -2.760870e+01
1.677220e+01 -1.875570e-01 -3.412040e+01
-1.676660e+01 -2.005080e+01 -2.764770e+01
1.595280e+01 -4.609100e+00 -3.429190e+01
-1.368810e+01 -2.623400e+01 -2.407370e+01
-2.112380e+01 -5.223200e+00 -3.124410e+01
8.829540e+00 -2.867830e+01 -2.371150e+01
1.480190e+01 -1.965840e+01 -2.925390e+01
1.522790e+01 -1.006030e+01 -3.366020e+01
1.506240e+01 -1.210940e+01 -3.308720e+01
1.669190e+01 -2.605970e+00 -3.445670e+01
-1.945700e+01 -1.076730e+01 -3.117980e+01
1.509220e+01 -1.393690e+01 -3.244090e+01
-1.158220e+01 -2.826680e+01 -2.329380e+01
1.291500e+01 -2.586430e+01 -2.553580e+01
-4.774210e+00 -3.069260e+01 -2.283250e+01
-2.112050e+01 -6.867460e+00 -3.139290e+01
1.531500e+01 -1.556300e+01 -3.182110e+01
-2.323160e+00 -3.117230e+01 -2.271340e+01
-2.119610e+01 -3.058770e+00 -3.201630e+01
-1.666460e+01 -2.223410e+01 -2.680640e+01
1.460760e+01 -2.367820e+01 -2.704500e+01
-7.678000e-03 -3.120990e+01 -2.307710e+01
-6.894030e+00 -3.038830e+01 -2.318100e+01
-1.871100e+01 -1.244520e+01 -3.159110e+01
1.083200e+01 -2.826260e+01 -2.449050e+01
6.156140e+00 -3.025080e+01 -2.375750e+01
1.537160e+01 -2.167000e+01 -2.851430e+01
4.008130e+00 -3.089540e+01 -2.359660e+01
1.692300e+01 -5.243650e+00 -3.482300e+01
1.920820e+00 -3.127490e+01 -2.352450e+01
-2.157920e+01 -6.881190e-01 -3.259220e+01
-9.341920e+00 -2.997140e+01 -2.349240e+01
-1.868240e+01 -1.468040e+01 -3.111560e+01
-1.850550e+01 -1.670260e+01 -3.021000e+01
-1.656560e+01 -2.442430e+01 -2.597320e+01
-1.326470e+01 -2.822170e+01 -2.402690e+01
1.618400e+01 -1.811780e+01 -3.104790e+01
-1.490780e+01 -2.654090e+01 -2.504710e+01
1.669960e+01 -7.569930e+00 -3.494440e+01
1.436950e+01 -2.536980e+01 -2.676960e+01
1.895920e+01 -1.850920e-01 -3.469380e+01
-1.862540e+01 -1.844850e+01 -2.952420e+01
8.284430e+00 -3.006240e+01 -2.452580e+01
1.887190e+01 -2.435250e+00 -3.489990e+01
1.282660e+01 -2.777420e+01 -2.550570e+01
1.670300e+01 -9.897880e+00 -3.472060e+01
-2.206530e+01 -1.758860e+00 -3.297930e+01
1.672740e+01 -1.212560e+01 -3.409720e+01
1.675960e+01 -1.432760e+01 -3.334410e+01
-2.207090e+01 -3.369060e+00 -3.302560e+01
1.657830e+01 -2.007660e+01 -3.038140e+01
-2.074900e+01 -1.038780e+01 -3.250320e+01
1.561310e+01 -2.423450e+01 -2.784930e+01
-1.880480e+01 -2.042060e+01 -2.876850e+01
1.680170e+01 -1.613100e+01 -3.261140e+01
9.962440e+00 -2.983870e+01 -2.506280e+01
-1.829550e+01 -2.253820e+01 -2.772300e+01
-2.162940e+01 -8.105190e+00 -3.284290e+01
1.710730e+01 -1.779400e+01 -3.184470e+01
1.936920e+01 -3.523470e+00 -3.513600e+01
-1.248130e+01 -2.952430e+01 -2.442450e+01
1.899790e+01 -5.164430e+00 -3.519600e+01
-2.210010e+01 -5.819200e+00 -3.321110e+01
1.695080e+01 -2.216760e+01 -2.948920e+01
-1.641520e+01 -2.670580e+01 -2.584670e+01
-7.396730e+00 -3.181870e+01 -2.442960e+01
-1.909390e+01 -2.263450e+01 -2.797320e+01
1.524310e+01 -2.637480e+01 -2.725220e+01
6.508670e+00 -3.159240e+01 -2.511070e+01
-1.819390e+01 -2.473380e+01 -2.689230e+01
-2.028740e+01 -1.569330e+01 -3.172110e+01
-2.024870e+01 -1.673950e+01 -3.122770e+01
1.755490e+01 -1.990710e+01 -3.118020e+01
-1.429460e+01 -2.906040e+01 -2.505040e+01
1.898390e+01 -7.642780e+00 -3.548690e+01
2.076270e+01 -2.205250e+00 -3.532230e+01
-2.322010e+00 -3.322850e+01 -2.411010e+01
-6.288380e-03 -3.322870e+01 -2.434540e+01
-2.045240e+01 -1.868580e+01 -3.042030e+01
-2.105310e+01 -1.282110e+01 -3.298700e+01
-2.371040e+01 -1.185850e+00 -3.363970e+01
1.928740e+00 -3.320730e+01 -2.451590e+01
1.897860e+01 -9.977870e+00 -3.528900e+01
1.317410e+01 -2.907150e+01 -2.629590e+01
-2.369780e+01 -3.545690e+00 -3.351990e+01
-2.206160e+01 -9.130980e+00 -3.359810e+01
2.124350e+01 -3.547150e-01 -3.545120e+01
-1.154360e+01 -3.080130e+01 -2.500720e+01
1.823490e+01 -1.451140e+01 -3.420800e+01
-4.639790e+00 -3.330110e+01 -2.417660e+01
-9.357980e+00 -3.164980e+01 -2.504520e+01
1.876610e+01 -1.216410e+01 -3.491020e+01
1.786460e+01 -2.188290e+01 -3.041380e+01
1.728620e+01 -2.428170e+01 -2.892070e+01
-2.179940e+01 -1.088640e+01 -3.345400e+01
-2.291360e+01 -7.557970e+00 -3.362410e+01
1.086130e+01 -3.058100e+01 -2.605830e+01
-1.901150e+01 -2.488940e+01 -2.733870e+01
3.855730e+00 -3.323360e+01 -2.484110e+01
-2.362980e+01 -5.882260e+00 -3.364870e+01
-2.123720e+01 -1.462460e+01 -3.259950e+01
2.129790e+01 -5.169410e+00 -3.549090e+01
2.153030e+01 -3.065640e+00 -3.560820e+01
1.173260e-01 -3.513910e+01 -2.267960e+01
1.865180e+01 -1.636150e+01 -3.368660e+01
-2.205920e+00 -3.518550e+01 -2.258610e+01
8.587490e+00 -3.161520e+01 -2.610240e+01
-2.081800e+01 -2.074840e+01 -2.971630e+01
2.054670e+00 -3.510770e+01 -2.281690e+01
-1.606390e+01 -2.881050e+01 -2.583080e+01
-2.146590e+01 -1.660180e+01 -3.196240e+01
-5.338620e+00 -3.465250e+01 -2.323300e+01
-6.969430e+00 -3.348150e+01 -2.458540e+01
3.983780e+00 -3.512040e+01 -2.309490e+01
2.129110e+01 -7.599830e+00 -3.561320e+01
1.902560e+01 -1.825620e+01 -3.299090e+01
-1.327980e+01 -3.072440e+01 -2.570790e+01
-1.730780e+01 -2.784310e+01 -2.656450e+01
-4.430870e+00 -3.538080e+01 -2.270430e+01
1.975330e+01 -1.272840e+01 -3.518360e+01
1.938450e+01 -1.460880e+01 -3.469270e+01
-2.156790e+01 -1.859170e+01 -3.121220e+01
-2.072530e+01 -2.294910e+01 -2.889620e+01
1.512320e+01 -2.863240e+01 -2.744150e+01
-2.379740e+01 -8.588570e+00 -3.400960e+01
-2.453800e+01 -6.872740e+00 -3.388890e+01
1.716950e+01 -2.647730e+01 -2.858750e+01
6.043390e+00 -3.350260e+01 -2.566710e+01
2.275660e+01 -8.451700e-02 -3.603110e+01
2.128060e+01 -9.991110e+00 -3.557920e+01
1.921930e+01 -2.034510e+01 -3.225350e+01
1.278950e+01 -3.050850e+01 -2.703640e+01
-7.037450e+00 -3.505640e+01 -2.334430e+01
1.979210e+01 -1.646460e+01 -3.420850e+01
2.172930e-01 -3.717930e+01 -2.147300e+01
-1.871620e+01 -2.737240e+01 -2.714590e+01
6.424240e+00 -3.479830e+01 -2.433310e+01
6.143700e+00 -3.557950e+01 -2.329270e+01
2.147790e+00 -3.713380e+01 -2.156300e+01
-2.362810e+01 -1.090540e+01 -3.404980e+01
-6.645960e+00 -3.593190e+01 -2.265270e+01
6.841880e+00 -3.291490e+01 -2.683120e+01
1.983340e+01 -1.757250e+01 -3.388150e+01
-2.590730e+01 -5.482910e+00 -3.378350e+01
-2.113160e+00 -3.728110e+01 -2.153330e+01
-2.611410e+01 -3.719780e+00 -3.391430e+01
1.936800e+01 -2.248510e+01 -3.133240e+01
2.356430e+01 -2.887370e+00 -3.611300e+01
2.359460e+01 -5.190070e+00 -3.584260e+01
-8.991030e+00 -3.401840e+01 -2.509290e+01
-2.614390e+01 -1.405840e+00 -3.423750e+01
2.128810e+01 -1.238830e+01 -3.556480e+01
4.069660e+00 -3.716890e+01 -2.190710e+01
1.669170e+01 -2.816310e+01 -2.842840e+01
-2.066900e+01 -2.525810e+01 -2.841300e+01
-2.357570e+01 -1.285980e+01 -3.387940e+01
-2.237330e+01 -2.169410e+01 -3.002950e+01
2.374810e+01 -6.607310e-01 -3.631620e+01
-1.677920e+01 -2.980130e+01 -2.667570e+01
-4.456620e+00 -3.741750e+01 -2.173400e+01
2.359840e+01 -7.555870e+00 -3.573550e+01
-2.626180e+01 -6.596150e+00 -3.386520e+01
-9.729040e+00 -3.355390e+01 -2.592490e+01
-1.191240e+01 -3.236010e+01 -2.653860e+01
-2.353870e+01 -1.472460e+01 -3.345250e+01
-2.234260e+01 -2.281100e+01 -2.964520e+01
1.449100e+01 -3.047430e+01 -2.783890e+01
8.067130e+00 -3.423620e+01 -2.602270e+01
-2.346870e+01 -1.688340e+01 -3.266860e+01
-9.214290e+00 -3.571510e+01 -2.368050e+01
-2.607250e+01 -8.557050e+00 -3.403970e+01
1.951930e+01 -2.467610e+01 -3.059670e+01
6.374800e+00 -3.723730e+01 -2.242770e+01
-2.008230e+01 -2.703030e+01 -2.804660e+01
1.064670e+01 -3.225520e+01 -2.785010e+01
-2.336440e+01 -1.904120e+01 -3.181700e+01
2.130680e+01 -1.476130e+01 -3.546490e+01
1.815130e+01 -2.719330e+01 -2.940850e+01
2.358890e+01 -9.958640e+00 -3.572060e+01
-1.407560e+01 -3.176960e+01 -2.689220e+01
-6.794780e+00 -3.754390e+01 -2.191400e+01
8.541140e+00 -3.542860e+01 -2.470700e+01
1.598770e+01 -2.975480e+01 -2.830870e+01
-2.334780e+01 -2.109420e+01 -3.092400e+01
2.133280e+01 -1.663150e+01 -3.499660e+01
8.480360e+00 -3.362510e+01 -2.749020e+01
-2.768910e+01 -5.364880e+00 -3.390750e+01
-1.862630e+01 -2.950850e+01 -2.747490e+01
-2.602680e+01 -1.100060e+01 -3.418530e+01
-2.811880e+01 -3.838320e+00 -3.415700e+01
2.140510e+01 -1.847560e+01 -3.444090e+01
9.010230e+00 -3.672770e+01 -2.374200e+01
2.359570e+01 -1.237560e+01 -3.578760e+01
-8.338300e+00 -3.800160e+01 -2.193420e+01
1.873740e-01 -3.940220e+01 -2.113610e+01
1.293360e+01 -3.196310e+01 -2.856190e+01
2.085380e+01 -2.273840e+01 -3.244720e+01
-1.644660e+01 -3.129840e+01 -2.740310e+01
-2.039980e+00 -3.955860e+01 -2.104840e+01
-2.338240e+01 -2.350120e+01 -3.005010e+01
-2.855550e+01 -6.273350e+00 -3.384880e+01
-2.817350e+01 -1.575690e+00 -3.469600e+01
2.588700e+01 -5.233800e+00 -3.627040e+01
-2.583300e+01 -1.291800e+01 -3.417520e+01
8.570490e+00 -3.758060e+01 -2.308360e+01
-1.167270e+01 -3.420930e+01 -2.657550e+01
-2.535460e+01 -1.469390e+01 -3.385500e+01
-4.288640e+00 -3.942810e+01 -2.111800e+01
2.149800e+01 -2.065030e+01 -3.364390e+01
-1.097150e+01 -3.616140e+01 -2.429970e+01
2.585260e+01 -2.962880e+00 -3.665240e+01
-9.359960e+00 -3.772150e+01 -2.262030e+01
2.589600e+01 -7.559890e+00 -3.604170e+01
2.038690e+00 -3.962650e+01 -2.137980e+01
1.756140e+01 -2.932290e+01 -2.942450e+01
4.124260e+00 -3.946280e+01 -2.149160e+01
1.953420e+01 -2.695850e+01 -3.051600e+01
2.580990e+01 -6.764170e-01 -3.701480e+01
-2.842220e+01 -8.571470e+00 -3.386410e+01
1.073800e+01 -3.569850e+01 -2.557600e+01
1.522470e+01 -3.118600e+01 -2.897740e+01
-2.819090e+01 7.196550e-01 -3.515810e+01
2.563290e+01 -9.686560e+00 -3.599290e+01
-2.527460e+01 -1.729780e+01 -3.317140e+01
-6.750370e+00 -3.940200e+01 -2.133050e+01
2.097530e+01 -2.456820e+01 -3.184970e+01
-2.929760e+01 -3.904090e+00 -3.431430e+01
1.042210e+01 -3.421450e+01 -2.807290e+01
-8.308760e+00 -3.913700e+01 -2.165320e+01
-2.112750e+01 -2.800730e+01 -2.884030e+01
-2.311160e+01 -2.567150e+01 -2.950320e+01
1.154750e+01 -3.508270e+01 -2.666050e+01
-1.197760e+01 -3.588590e+01 -2.530740e+01
2.361460e+01 -1.483700e+01 -3.602510e+01
6.448380e+00 -3.950600e+01 -2.194080e+01
-2.678820e+01 -1.344800e+01 -3.426030e+01
-2.539550e+01 -1.935970e+01 -3.261800e+01
-2.935560e+01 -1.647810e+00 -3.488340e+01
-2.839340e+01 -1.101120e+01 -3.401550e+01
-2.643300e+01 -1.514010e+01 -3.403360e+01
-1.451840e+01 -3.308380e+01 -2.809980e+01
-4.770530e+00 -4.047950e+01 -2.106970e+01
2.200140e+01 -2.289730e+01 -3.315740e+01
1.094450e+01 -3.761870e+01 -2.427950e+01
-1.149090e+01 -3.780560e+01 -2.363420e+01
2.639880e+01 -1.053140e+01 -3.626760e+01
-2.529110e+01 -2.153820e+01 -3.179550e+01
-2.757910e+01 -1.345580e+01 -3.421810e+01
-1.945920e+01 -3.061630e+01 -2.837680e+01
-1.232070e+01 -3.694360e+01 -2.472480e+01
-2.637820e+01 -1.711330e+01 -3.363420e+01
2.364500e+01 -1.680900e+01 -3.591560e+01
1.895690e+01 -2.908320e+01 -3.049980e+01
-2.937800e+01 6.169780e-01 -3.545240e+01
1.111820e+01 -3.379700e+01 -2.949550e+01
1.366440e+01 -3.268380e+01 -2.974580e+01
2.589910e+01 -1.240980e+01 -3.624530e+01
8.664940e+00 -3.951430e+01 -2.258890e+01
1.239350e+01 -3.641010e+01 -2.582920e+01
1.711780e+01 -3.099930e+01 -2.995620e+01
-6.727890e+00 -4.063740e+01 -2.135660e+01
-9.232410e+00 -3.977470e+01 -2.204140e+01
-2.852230e+01 -1.295660e+01 -3.406810e+01
-1.322960e+01 -3.524520e+01 -2.716590e+01
-3.080390e+01 -6.305780e+00 -3.417170e+01
2.371690e+01 -1.870310e+01 -3.553390e+01
-1.411070e+01 -3.446950e+01 -2.807550e+01
2.817080e+01 -5.317240e+00 -3.685190e+01
-1.639160e+01 -3.283800e+01 -2.878990e+01
2.807260e+01 -7.409160e+00 -3.660850e+01
-3.086560e+01 -4.034030e+00 -3.468580e+01
-2.558770e+01 -2.374820e+01 -3.096590e+01
-3.075440e+01 -8.662700e+00 -3.397690e+01
2.196980e+01 -2.528290e+01 -3.267710e+01
2.813770e+01 -3.048930e+00 -3.724200e+01
2.040720e+01 -2.807780e+01 -3.139580e+01
-2.798930e+00 -4.141010e+01 -2.164240e+01
-2.661330e+01 -1.954160e+01 -3.305860e+01
-1.341550e+01 -3.635020e+01 -2.625670e+01
1.260630e+01 -3.484080e+01 -2.869420e+01
-2.832680e+01 -1.504530e+01 -3.405360e+01
-2.300680e+01 -2.808010e+01 -2.973150e+01
2.380730e+01 -2.088930e+01 -3.477990e+01
-1.874360e+01 -3.200490e+01 -2.884350e+01
1.318200e+01 -3.593970e+01 -2.740080e+01
-3.092670e+01 -1.794120e+00 -3.531230e+01
2.809050e+01 -8.274340e-01 -3.781960e+01
-2.651630e+01 -2.173660e+01 -3.227670e+01
2.592280e+01 -1.489050e+01 -3.652560e+01
-2.101950e+01 -3.040050e+01 -2.927300e+01
-3.071740e+01 -1.108130e+01 -3.399240e+01
-1.142380e+01 -3.965530e+01 -2.303510e+01
1.276270e+01 -3.799020e+01 -2.522500e+01
2.856580e+01 -8.469700e+00 -3.681190e+01
-2.014550e+00 -4.191390e+01 -2.201300e+01
2.819020e+01 -1.006900e+01 -3.677540e+01
9.549960e+00 -4.048590e+01 -2.290080e+01
1.301760e+01 -3.422310e+01 -3.018770e+01
-3.083440e-01 -4.198430e+01 -2.217850e+01
1.837080e+00 -4.186630e+01 -2.234610e+01
1.536660e+01 -3.272920e+01 -3.081730e+01
1.103310e+01 -3.982110e+01 -2.356380e+01
-3.095850e+01 4.571140e-01 -3.589000e+01
-2.543290e+01 -2.596020e+01 -3.052350e+01
-4.363310e+00 -4.197880e+01 -2.195430e+01
-2.828170e+01 -1.742990e+01 -3.391210e+01
2.391630e+01 -2.311070e+01 -3.414840e+01
-3.067850e+01 -1.307180e+01 -3.390860e+01
2.575800e+01 -1.669730e+01 -3.649720e+01
4.135960e+00 -4.186390e+01 -2.264210e+01
2.186970e+01 -2.750150e+01 -3.239140e+01
-1.386410e+01 -3.800560e+01 -2.537840e+01
-1.462080e+01 -3.619360e+01 -2.751100e+01
2.522850e+01 -1.808860e+01 -3.637330e+01
1.992140e+01 -2.988620e+01 -3.162950e+01
-6.703300e+00 -4.205490e+01 -2.195140e+01
2.970380e+01 -6.876690e+00 -3.696280e+01
2.821000e+01 -1.248350e+01 -3.683170e+01
1.765960e+01 -3.196230e+01 -3.125790e+01
6.457540e+00 -4.183210e+01 -2.286610e+01
-2.228480e+01 -3.024150e+01 -2.993870e+01
1.375490e+01 -3.791530e+01 -2.632420e+01
-2.822020e+01 -1.973520e+01 -3.347990e+01
-9.035750e+00 -4.179790e+01 -2.223670e+01
2.997610e+01 -5.243710e+00 -3.742460e+01
-3.065110e+01 -1.512580e+01 -3.402970e+01
-2.498790e+01 -2.792670e+01 -3.045150e+01
2.534220e+01 -2.104480e+01 -3.551100e+01
3.001840e+01 -3.147540e+00 -3.787990e+01
2.635600e+01 -1.736070e+01 -3.677200e+01
-2.062960e+01 -3.214980e+01 -2.977290e+01
1.488280e+01 -3.671240e+01 -2.808500e+01
2.403010e+01 -2.539180e+01 -3.371960e+01
-3.225960e+01 -1.198180e+01 -3.412010e+01
-2.813960e+01 -2.197120e+01 -3.281790e+01
8.775120e+00 -4.183980e+01 -2.321660e+01
-3.316180e+01 -6.537930e+00 -3.483380e+01
-2.393580e+01 -2.926790e+01 -3.055060e+01
-3.310110e+01 -8.853130e+00 -3.443510e+01
2.612720e+01 -1.901050e+01 -3.654310e+01
2.997470e+01 -9.399990e-01 -3.850830e+01
1.306960e+01 -4.008240e+01 -2.469920e+01
2.823820e+01 -1.492300e+01 -3.694050e+01
3.048000e+01 -7.754740e+00 -3.736430e+01
-3.322090e+01 -4.267880e+00 -3.536800e+01
2.748660e+01 -1.654170e+01 -3.686940e+01
-3.290840e+01 -1.076110e+01 -3.431640e+01
-2.633790e+01 -2.703650e+01 -3.093430e+01
-1.751200e+01 -3.386360e+01 -3.054540e+01
1.490850e+01 -3.490460e+01 -3.089160e+01
2.175230e+01 -2.937420e+01 -3.258860e+01
-1.111060e+01 -4.180590e+01 -2.295300e+01
3.014950e+01 -1.014200e+01 -3.728180e+01
1.934620e+01 -3.155710e+01 -3.216800e+01
-2.803800e+01 -2.416920e+01 -3.201990e+01
2.544680e+01 -2.329710e+01 -3.497970e+01
-1.378230e+01 -4.022780e+01 -2.462010e+01
-1.910380e+01 -3.338170e+01 -3.051690e+01
-1.667690e+01 -3.495970e+01 -3.018690e+01
-3.328100e+01 -2.024390e+00 -3.598370e+01
3.099610e+01 -5.664060e+00 -3.780970e+01
-1.615070e+01 -3.679280e+01 -2.834110e+01
1.558390e+01 -3.628550e+01 -2.946260e+01
-3.063370e+01 -1.760710e+01 -3.420050e+01
-4.426810e-01 -4.377100e+01 -2.285800e+01
-2.383780e+00 -4.381790e+01 -2.277530e+01
3.019080e+01 -1.250030e+01 -3.713050e+01
2.387270e+01 -2.749250e+01 -3.354140e+01
-3.311990e+01 -1.295530e+01 -3.423970e+01
1.524040e+01 -3.845580e+01 -2.727580e+01
1.105180e+01 -4.196670e+01 -2.394180e+01
-2.335860e+01 -3.103020e+01 -3.071030e+01
2.552420e+01 -2.478470e+01 -3.457860e+01
1.402780e+01 -4.026880e+01 -2.545320e+01
3.114000e+01 -3.269070e+00 -3.850590e+01
2.649380e+01 -2.121430e+01 -3.622060e+01
1.861890e+00 -4.392900e+01 -2.311840e+01
-4.337700e+00 -4.390610e+01 -2.283160e+01
-3.332810e+01 1.994510e-01 -3.662070e+01
4.159710e+00 -4.370450e+01 -2.328820e+01
-3.383160e+01 -1.130690e+01 -3.442690e+01
2.843360e+01 -1.705260e+01 -3.707540e+01
1.552820e+01 -3.456630e+01 -3.229420e+01
-6.669020e+00 -4.390620e+01 -2.260390e+01
3.111110e+01 -1.795630e+00 -3.891890e+01
-1.631200e+01 -3.855330e+01 -2.703450e+01
-2.113260e+01 -3.288880e+01 -3.085750e+01
-9.002010e+00 -4.356860e+01 -2.263220e+01
-2.583370e+01 -2.901420e+01 -3.127000e+01
1.255270e+01 -4.169590e+01 -2.459620e+01
-2.797560e+01 -2.650310e+01 -3.166200e+01
6.469270e+00 -4.367130e+01 -2.351950e+01
-1.699990e+01 -3.644780e+01 -2.964440e+01
-3.059660e+01 -1.998600e+01 -3.400510e+01
-3.471720e+01 -6.684720e+00 -3.522380e+01
8.772820e+00 -4.322780e+01 -2.374160e+01
-3.466680e+01 -8.611710e+00 -3.488400e+01
-3.298920e+01 -1.528070e+01 -3.425760e+01
3.013550e+01 -1.477370e+01 -3.720910e+01
-3.476690e+01 -4.384110e+00 -3.566930e+01
-1.187430e+01 -4.277490e+01 -2.332720e+01
2.659520e+01 -2.343450e+01 -3.558440e+01
1.739460e+01 -3.354630e+01 -3.319820e+01
2.811820e+01 -1.891530e+01 -3.718070e+01
1.617560e+01 -3.828400e+01 -2.856910e+01
2.453750e+01 -2.822540e+01 -3.383690e+01
2.194030e+01 -3.064800e+01 -3.353180e+01
1.541790e+01 -4.023580e+01 -2.631250e+01
2.619710e+01 -2.562380e+01 -3.477870e+01
3.223930e+01 -8.005760e+00 -3.808600e+01
-3.482680e+01 -2.154930e+00 -3.635580e+01
3.231090e+01 -5.605400e+00 -3.850160e+01
1.716300e+01 -3.687050e+01 -3.020330e+01
-1.840270e+01 -3.499760e+01 -3.153070e+01
-2.276040e+01 -3.265360e+01 -3.120560e+01
1.067670e+01 -4.328380e+01 -2.420090e+01
-3.054350e+01 -2.230150e+01 -3.360070e+01
3.211710e+01 -1.024500e+01 -3.788680e+01
3.226910e+01 -3.358900e+00 -3.899910e+01
1.986980e+01 -3.253860e+01 -3.353250e+01
-4.243180e-01 -4.514670e+01 -2.329130e+01
1.880320e+00 -4.508680e+01 -2.343430e+01
3.062800e+01 -1.578300e+01 -3.740970e+01
3.194320e+01 -1.045800e+00 -3.958120e+01
3.025290e+01 -1.696760e+01 -3.727920e+01
-1.362740e+01 -4.254560e+01 -2.447730e+01
-3.565010e+01 -9.212770e+00 -3.509090e+01
-3.007170e+01 -2.452280e+01 -3.294620e+01
-3.538520e+01 -1.104570e+01 -3.485210e+01
-3.487610e+01 6.129880e-02 -3.703070e+01
-2.543350e+01 -3.077940e+01 -3.162210e+01
-2.759220e+00 -4.527360e+01 -2.340040e+01
-3.298300e+01 -1.778300e+01 -3.449300e+01
1.345790e+01 -4.234380e+01 -2.526270e+01
4.176150e+00 -4.509100e+01 -2.377480e+01
3.218390e+01 -1.259680e+01 -3.770340e+01
-3.588670e+01 -6.840370e+00 -3.567170e+01
2.803180e+01 -2.143340e+01 -3.712270e+01
-2.163270e+01 -3.361880e+01 -3.191150e+01
1.721690e+01 -3.522540e+01 -3.300690e+01
-1.798940e+01 -3.888450e+01 -2.802780e+01
3.180160e+01 -1.419680e+01 -3.763610e+01
-3.593340e+01 -4.543440e+00 -3.615160e+01
-4.710510e+00 -4.538390e+01 -2.352330e+01
2.588620e+01 -2.804880e+01 -3.438920e+01
-1.903860e+01 -3.534070e+01 -3.192670e+01
-1.623790e+01 -4.084920e+01 -2.650810e+01
-3.535140e+01 -1.304660e+01 -3.476450e+01
-3.258700e+01 -1.940140e+01 -3.451590e+01
-2.788830e+01 -2.891910e+01 -3.192630e+01
-1.875230e+01 -3.730170e+01 -3.000920e+01
2.156420e+01 -3.203080e+01 -3.408820e+01
8.774360e+00 -4.462090e+01 -2.427770e+01
-6.650990e+00 -4.541110e+01 -2.341590e+01
6.473950e+00 -4.510420e+01 -2.415980e+01
-8.987720e+00 -4.509120e+01 -2.348550e+01
-3.598400e+01 -2.284580e+00 -3.675130e+01
2.365580e+01 -3.052380e+01 -3.430970e+01
1.813950e+01 -3.682930e+01 -3.143130e+01
1.701270e+01 -4.037610e+01 -2.759200e+01
-2.993420e+01 -2.667450e+01 -3.256200e+01
1.769270e+01 -3.885220e+01 -2.934560e+01
3.002550e+01 -1.919740e+01 -3.762660e+01
2.812190e+01 -2.370380e+01 -3.666270e+01
-1.123070e+01 -4.476000e+01 -2.385310e+01
-3.532500e+01 -1.547590e+01 -3.472900e+01
3.232660e+01 -1.528770e+01 -3.788740e+01
1.116470e+01 -4.451620e+01 -2.487200e+01
-2.721740e+01 -3.067980e+01 -3.212910e+01
-3.603740e+01 -9.650280e-02 -3.754750e+01
-1.920050e+01 -3.670160e+01 -3.167710e+01
3.368660e+01 -1.037710e+01 -3.854940e+01
-3.309170e+01 -2.050540e+01 -3.465340e+01
-3.129550e+01 -2.474890e+01 -3.355570e+01
1.564770e+01 -4.224780e+01 -2.655220e+01
-3.480190e+01 -1.736450e+01 -3.473040e+01
3.393130e+01 -8.083560e+00 -3.898260e+01
-1.794680e+01 -4.044940e+01 -2.782320e+01
2.794170e+01 -2.597770e+01 -3.585100e+01
-1.926190e+01 -3.916850e+01 -2.887180e+01
-2.644670e+01 -3.151840e+01 -3.233630e+01
-2.960180e+01 -2.842580e+01 -3.248250e+01
1.703730e+01 -4.150200e+01 -2.731570e+01
-2.330700e+01 -3.365900e+01 -3.274360e+01
-1.452690e+01 -4.371330e+01 -2.518380e+01
2.268240e+01 -3.219000e+01 -3.478080e+01
1.811780e+01 -3.513580e+01 -3.459740e+01
3.376270e+01 -1.195250e+01 -3.845640e+01
3.224460e+01 -1.707230e+01 -3.786490e+01
-1.290720e+01 -4.469880e+01 -2.447950e+01
3.421620e+01 -5.826690e+00 -3.953850e+01
-2.053780e+01 -3.549750e+01 -3.296750e+01
2.989370e+01 -2.145520e+01 -3.774530e+01
-2.879920e+01 -2.996890e+01 -3.227700e+01
-4.246350e-01 -4.699430e+01 -2.393440e+01
3.416530e+01 -3.571660e+00 -4.003510e+01
-3.739100e+01 -9.358500e+00 -3.588250e+01
1.813050e+01 -4.060590e+01 -2.853440e+01
1.878080e+00 -4.695390e+01 -2.415030e+01
-3.745430e+01 -7.078870e+00 -3.638620e+01
1.323080e+01 -4.431960e+01 -2.565200e+01
2.559650e+01 -3.029810e+01 -3.497410e+01
-2.753020e+00 -4.709360e+01 -2.396300e+01
-2.567110e+01 -3.276290e+01 -3.255400e+01
2.151980e+01 -3.316380e+01 -3.520270e+01
-3.295570e+01 -2.265860e+01 -3.449360e+01
-3.749610e+01 -4.779380e+00 -3.687480e+01
-3.734270e+01 -1.130040e+01 -3.562710e+01
1.919880e+01 -3.418200e+01 -3.562160e+01
1.937790e+01 -3.738830e+01 -3.227030e+01
2.928170e+01 -2.384510e+01 -3.725580e+01
-3.103680e+01 -2.724390e+01 -3.313290e+01
-4.625430e+00 -4.705450e+01 -2.413370e+01
4.175360e+00 -4.695470e+01 -2.449440e+01
-1.611230e+01 -4.315920e+01 -2.638880e+01
3.411710e+01 -1.361090e+00 -4.069220e+01
2.793420e+01 -2.816740e+01 -3.545270e+01
1.918690e+01 -3.915130e+01 -3.056560e+01
-3.730680e+01 -1.327170e+01 -3.544110e+01
-3.558920e+01 -1.828270e+01 -3.501300e+01
-6.534160e+00 -4.705680e+01 -2.415900e+01
-2.819650e+01 -3.131750e+01 -3.251330e+01
-3.689860e+01 -1.525180e+01 -3.525030e+01
6.474450e+00 -4.691980e+01 -2.474400e+01
-8.782220e+00 -4.678940e+01 -2.426920e+01
3.480480e+01 -1.052860e+01 -3.922010e+01
1.508030e+01 -4.403300e+01 -2.645570e+01
-1.212320e+01 -4.596370e+01 -2.464330e+01
3.507690e+01 -8.230420e+00 -3.964040e+01
-2.080090e+01 -3.763330e+01 -3.184940e+01
3.230570e+01 -1.918950e+01 -3.821420e+01
1.906850e+01 -3.582190e+01 -3.500650e+01
1.975090e+01 -3.680120e+01 -3.361890e+01
1.965910e+01 -3.883150e+01 -3.136650e+01
8.662690e+00 -4.667000e+01 -2.503300e+01
3.461240e+01 -1.295280e+01 -3.888930e+01
-2.054620e+01 -3.949190e+01 -2.984920e+01
-3.042270e+01 -2.940110e+01 -3.294790e+01
-3.793950e+01 -2.605230e+00 -3.776680e+01
-1.886540e+01 -4.153360e+01 -2.833390e+01
2.936520e+01 -2.610830e+01 -3.677760e+01
-1.396670e+01 -4.546090e+01 -2.521290e+01
-3.292570e+01 -2.504580e+01 -3.436310e+01
3.080780e+01 -2.246400e+01 -3.819460e+01
-3.533140e+01 -2.048040e+01 -3.512950e+01
-2.420760e+01 -3.428220e+01 -3.383810e+01
-3.856940e+01 -9.525940e+00 -3.638470e+01
2.355980e+01 -3.292980e+01 -3.577490e+01
2.758380e+01 -2.983900e+01 -3.563460e+01
1.086280e+01 -4.637350e+01 -2.565710e+01
3.195440e+01 -2.085240e+01 -3.834000e+01
1.954680e+01 -4.070480e+01 -2.987990e+01
1.788480e+01 -4.264460e+01 -2.822890e+01
3.456840e+01 -1.524900e+01 -3.880440e+01
-3.749120e+01 -1.594910e+01 -3.549500e+01
1.996810e+01 -3.996100e+01 -3.068460e+01
3.045700e+01 -2.399540e+01 -3.787660e+01
-5.115700e+00 -4.812460e+01 -2.444550e+01
-3.852800e+01 -1.147730e+01 -3.616770e+01
-3.798580e+01 -3.968540e-01 -3.850950e+01
-2.185820e+01 -3.591050e+01 -3.422350e+01
2.607020e+01 -3.154160e+01 -3.576880e+01
-3.901970e+01 -7.296060e+00 -3.703530e+01
-7.054540e+00 -4.816600e+01 -2.438350e+01
2.943490e+01 -2.796890e+01 -3.629950e+01
1.407630e+01 -4.546200e+01 -2.656970e+01
-2.173780e+01 -3.723070e+01 -3.316790e+01
-2.790810e+01 -3.283560e+01 -3.317260e+01
-4.581720e-01 -4.876270e+01 -2.443570e+01
-2.001490e+00 -4.878610e+01 -2.432120e+01
3.483860e+01 7.119090e-01 -4.196320e+01
-3.906130e+01 -5.005970e+00 -3.755960e+01
-9.166130e+00 -4.796720e+01 -2.457820e+01
2.027240e+01 -3.459230e+01 -3.716700e+01
-2.142570e+01 -3.977880e+01 -3.074970e+01
-1.705910e+01 -4.430610e+01 -2.713740e+01
2.040660e+00 -4.888230e+01 -2.457440e+01
-3.493960e+01 -2.291830e+01 -3.516660e+01
1.955030e+01 -3.567240e+01 -3.662770e+01
-1.559670e+01 -4.544670e+01 -2.620350e+01
-3.729880e+01 -1.820850e+01 -3.553930e+01
3.461650e+01 -1.728930e+01 -3.887250e+01
-3.044110e+01 -3.122810e+01 -3.317920e+01
-3.289010e+01 -2.742350e+01 -3.421850e+01
4.000700e+00 -4.894200e+01 -2.469360e+01
6.071230e+00 -4.860570e+01 -2.494330e+01
9.127070e+00 -4.783530e+01 -2.552460e+01
2.082630e+01 -3.907580e+01 -3.257840e+01
3.413690e+01 -1.876310e+01 -3.880530e+01
-1.138010e+01 -4.765850e+01 -2.498630e+01
1.582080e+01 -4.507340e+01 -2.735910e+01
1.928190e+01 -4.240830e+01 -2.933910e+01
3.248660e+01 -2.196910e+01 -3.867430e+01
-2.043960e+01 -4.179030e+01 -2.942680e+01
2.099280e+01 -3.734610e+01 -3.472160e+01
-2.242710e+01 -3.863380e+01 -3.226990e+01
3.051680e+01 -2.635630e+01 -3.769000e+01
-3.950090e+01 -2.810610e+00 -3.837020e+01
1.118140e+01 -4.755690e+01 -2.604070e+01
-3.976010e+01 -9.734440e+00 -3.702980e+01
-3.929870e+01 -1.358910e+01 -3.638310e+01
3.653060e+01 -6.224910e+00 -4.122920e+01
2.805060e+01 -3.106380e+01 -3.637560e+01
-1.872780e+01 -4.384080e+01 -2.824680e+01
-2.492880e+00 -4.976600e+01 -2.438890e+01
2.565570e+01 -3.298470e+01 -3.653990e+01
3.646190e+01 -3.942890e+00 -4.166780e+01
-3.480710e+01 -2.482200e+01 -3.523340e+01
-3.972610e+01 -1.169000e+01 -3.679850e+01
3.660370e+01 -8.543100e+00 -4.090460e+01
-4.823560e-01 -4.995690e+01 -2.446970e+01
1.684060e+00 -4.993490e+01 -2.447230e+01
-3.247690e+01 -2.939670e+01 -3.409760e+01
-4.380270e+00 -4.972840e+01 -2.461900e+01
-2.329710e+01 -3.632120e+01 -3.504110e+01
3.639370e+01 -1.314420e+01 -4.007540e+01
3.658600e+01 -1.087820e+01 -4.061600e+01
-1.352120e+01 -4.761620e+01 -2.562770e+01
1.330770e+01 -4.715530e+01 -2.670460e+01
-3.637940e+01 -2.253220e+01 -3.556820e+01
-4.020700e+01 -7.508060e+00 -3.771340e+01
-3.730250e+01 -2.071470e+01 -3.575810e+01
3.639470e+01 -1.712110e+00 -4.227720e+01
-3.008570e+01 -3.280650e+01 -3.353530e+01
-2.591730e+01 -3.471290e+01 -3.507730e+01
4.340170e+00 -4.996740e+01 -2.460190e+01
1.756100e+01 -4.478560e+01 -2.847240e+01
2.181700e+01 -3.897180e+01 -3.358820e+01
-1.671560e+01 -4.603140e+01 -2.691030e+01
6.549060e+00 -4.962710e+01 -2.500760e+01
-4.025330e+01 -5.233440e+00 -3.827380e+01
-2.269730e+01 -4.008540e+01 -3.165920e+01
-3.928710e+01 -1.602030e+01 -3.629190e+01
-3.207780e+01 -3.057610e+01 -3.401580e+01
3.634110e+01 -1.496720e+01 -3.986300e+01
3.241590e+01 -2.420810e+01 -3.879280e+01
3.613600e+01 -1.626060e+01 -3.966000e+01
3.041120e+01 -2.876760e+01 -3.731270e+01
2.126290e+01 -4.104580e+01 -3.179240e+01
3.494100e+01 -1.966930e+01 -3.922230e+01
-2.345430e+01 -3.814350e+01 -3.362780e+01
-6.731490e+00 -4.985570e+01 -2.481980e+01
1.985840e+01 -4.317520e+01 -2.994700e+01
-2.130840e+01 -4.208120e+01 -3.035220e+01
2.102120e+01 -3.572820e+01 -3.792280e+01
-4.029940e+01 -2.969660e+00 -3.885660e+01
-3.994580e+01 -6.770620e-01 -3.932690e+01
2.371760e+01 -3.456640e+01 -3.752550e+01
2.166220e+01 -3.701400e+01 -3.642250e+01
-3.128400e+01 -3.212880e+01 -3.386720e+01
8.721090e+00 -4.947230e+01 -2.556460e+01
-3.507580e+01 -2.597240e+01 -3.546590e+01
-2.838110e+01 -3.430530e+01 -3.441610e+01
3.634180e+01 4.544470e-01 -4.308150e+01
-4.708090e-01 -5.103390e+01 -2.410920e+01
-3.918840e+01 -1.836920e+01 -3.628130e+01
-2.441680e+01 -3.613060e+01 -3.602760e+01
2.250540e+01 -3.491160e+01 -3.854340e+01
-9.079810e+00 -5.000640e+01 -2.506400e+01
-2.536940e+00 -5.132920e+01 -2.397660e+01
-3.368290e+01 -2.957170e+01 -3.457230e+01
2.790220e+01 -3.265160e+01 -3.711300e+01
3.743490e+01 -1.105630e+01 -4.129840e+01
1.535200e+01 -4.722900e+01 -2.769090e+01
1.861450e+00 -5.162190e+01 -2.379960e+01
-3.874840e+01 -2.032910e+01 -3.617640e+01
-3.717050e+01 -2.347130e+01 -3.594350e+01
-3.484640e+01 -2.764740e+01 -3.533430e+01
3.472850e+01 -2.191930e+01 -3.953070e+01
2.135540e+01 -3.584530e+01 -3.882280e+01
4.727730e+00 -5.144270e+01 -2.428890e+01
1.100330e+01 -4.953960e+01 -2.617910e+01
3.222740e+01 -2.656500e+01 -3.890550e+01
3.011470e+01 -3.095890e+01 -3.733340e+01
-4.419720e-01 -5.203600e+01 -2.350500e+01
-1.436350e+01 -4.860010e+01 -2.622490e+01
2.221960e+01 -4.125830e+01 -3.263650e+01
-2.253430e+01 -4.228810e+01 -3.091680e+01
3.702570e+00 -5.174390e+01 -2.396330e+01
3.752740e+01 -1.337150e+01 -4.093910e+01
-1.859850e+01 -4.613270e+01 -2.807160e+01
2.560820e+01 -3.455020e+01 -3.775220e+01
3.737720e+01 -1.540460e+01 -4.052780e+01
-4.136340e+01 -1.005650e+01 -3.804880e+01
3.811920e+01 -7.990610e+00 -4.195180e+01
3.807370e+01 -6.485290e+00 -4.232290e+01
-2.253130e+00 -5.223330e+01 -2.349380e+01
1.831960e+01 -4.579070e+01 -2.924710e+01
-2.397740e+01 -4.043730e+01 -3.272420e+01
-1.135410e+01 -5.010220e+01 -2.550600e+01
-1.303740e+01 -4.953740e+01 -2.585360e+01
3.704480e+01 -1.732850e+01 -4.028380e+01
-4.368000e+00 -5.193940e+01 -2.407110e+01
-4.111690e+01 -1.374510e+01 -3.744970e+01
-3.299800e+01 -3.167440e+01 -3.456590e+01
3.799290e+01 -4.228940e+00 -4.286230e+01
-4.134320e+01 -1.203340e+01 -3.785330e+01
3.170550e+01 -2.859050e+01 -3.851880e+01
2.116270e+01 -4.334270e+01 -3.135480e+01
-4.170210e+01 -7.688660e+00 -3.861920e+01
-3.067570e+01 -3.415270e+01 -3.453190e+01
2.304210e+01 -3.965300e+01 -3.482540e+01
-4.089170e+01 -1.588180e+01 -3.708100e+01
6.438500e+00 -5.168320e+01 -2.463440e+01
-2.121080e+01 -4.437780e+01 -2.989040e+01
-2.497380e+01 -3.889250e+01 -3.426610e+01
3.791590e+01 -1.969640e+00 -4.337960e+01
-1.624710e+01 -4.830210e+01 -2.694910e+01
-4.184410e+01 -5.514560e+00 -3.914820e+01
2.942660e+01 -3.268790e+01 -3.742030e+01
-2.599650e+01 -3.666970e+01 -3.624720e+01
-3.692830e+01 -2.568980e+01 -3.619750e+01
1.319020e+01 -4.954380e+01 -2.692570e+01
-4.008880e+01 -1.944040e+01 -3.674090e+01
3.450150e+01 -2.414910e+01 -3.972550e+01
2.336150e+01 -3.781770e+01 -3.718700e+01
1.631720e+01 -4.789700e+01 -2.833920e+01
-3.498470e+01 -2.958260e+01 -3.532750e+01
2.329910e+01 -3.618040e+01 -3.883100e+01
-6.731420e+00 -5.213450e+01 -2.447900e+01
1.969780e+01 -4.549430e+01 -3.025020e+01
-4.189870e+01 -3.281970e+00 -3.982220e+01
3.786270e+01 -1.533590e-01 -4.400340e+01
-3.954650e+01 -2.128510e+01 -3.662240e+01
1.480230e+01 -4.896830e+01 -2.764140e+01
2.786490e+01 -3.410820e+01 -3.796860e+01
3.701860e+01 -1.968970e+01 -4.039330e+01
-2.380300e+01 -4.260280e+01 -3.183820e+01
8.707060e+00 -5.184570e+01 -2.544820e+01
-4.191050e-02 -5.379620e+01 -2.285350e+01
-4.194540e+01 -1.052020e+00 -4.045010e+01
2.557890e+01 -3.562200e+01 -3.864670e+01
-2.606900e+01 -3.866690e+01 -3.513640e+01
3.900440e+01 -9.072800e+00 -4.262200e+01
1.874460e+00 -5.376740e+01 -2.302450e+01
-1.950570e+01 -4.719080e+01 -2.849310e+01
3.323150e+01 -2.731060e+01 -3.972560e+01
-1.971740e+00 -5.388620e+01 -2.286900e+01
-1.226600e+01 -5.110670e+01 -2.578830e+01
-8.991300e+00 -5.224580e+01 -2.489400e+01
3.096270e+01 -3.205980e+01 -3.807910e+01
2.228520e+01 -4.358260e+01 -3.230970e+01
3.896950e+01 -1.132490e+01 -4.233050e+01
-2.523850e+01 -4.074990e+01 -3.364280e+01
-4.259460e+01 -8.755260e+00 -3.912120e+01
-4.256720e+01 -1.028910e+01 -3.878480e+01
-1.807680e+01 -4.837610e+01 -2.779470e+01
2.330190e+01 -4.166950e+01 -3.417440e+01
1.782940e+01 -4.770020e+01 -2.925290e+01
-1.396500e+01 -5.058340e+01 -2.629770e+01
2.402190e+01 -3.962780e+01 -3.609290e+01
3.780940e+00 -5.379330e+01 -2.336520e+01
3.896330e+01 -1.351570e+01 -4.186890e+01
-3.678130e+01 -2.766180e+01 -3.634790e+01
3.921990e+01 -6.720230e+00 -4.325170e+01
-4.254070e+01 -1.223050e+01 -3.844910e+01
3.913690e+01 -4.420550e+00 -4.364200e+01
-4.221020e+01 -1.433750e+01 -3.813820e+01
2.413110e+01 -3.728150e+01 -3.855240e+01
3.660490e+01 -2.198700e+01 -4.045880e+01
-3.282310e+01 -3.388310e+01 -3.498700e+01
2.082180e+01 -4.534880e+01 -3.126140e+01
-3.928280e+01 -2.349110e+01 -3.680620e+01
-4.410130e+00 -5.397680e+01 -2.317230e+01
-2.833660e+01 -3.675890e+01 -3.620080e+01
-1.067790e+01 -5.214290e+01 -2.535550e+01
-4.193590e+01 -1.662540e+01 -3.775610e+01
3.529710e+01 -2.506240e+01 -4.014470e+01
4.914620e+00 -5.385990e+01 -2.374300e+01
3.905590e+01 -2.187300e+00 -4.425470e+01
3.269520e+01 -2.937630e+01 -3.949460e+01
-3.483340e+01 -3.172810e+01 -3.550820e+01
-2.287070e+01 -4.475770e+01 -3.101480e+01
1.403610e+01 -5.056710e+01 -2.746200e+01
-3.632600e+01 -2.947150e+01 -3.609790e+01
1.251010e+01 -5.128600e+01 -2.688920e+01
1.098490e+01 -5.199580e+01 -2.630750e+01
3.028080e+01 -3.380900e+01 -3.820900e+01
3.916450e+01 -1.535140e+01 -4.186250e+01
-2.117130e+01 -4.676430e+01 -2.970110e+01
-3.518860e+00 -5.472960e+01 -2.279950e+01
3.882670e+01 1.215870e-01 -4.494590e+01
-4.170520e+01 -1.891720e+01 -3.763800e+01
-6.570730e+00 -5.416850e+01 -2.354580e+01
-1.187400e+01 -5.226740e+01 -2.565940e+01
2.557270e+01 -3.660450e+01 -3.923420e+01
6.428350e+00 -5.395940e+01 -2.428280e+01
3.889140e+01 -1.753090e+01 -4.149360e+01
1.564940e+01 -5.002680e+01 -2.826120e+01
-3.882090e+01 -2.576800e+01 -3.690430e+01
1.959940e+01 -4.741320e+01 -3.034610e+01
2.498220e+01 -3.867830e+01 -3.792610e+01
2.783080e+01 -3.561030e+01 -3.896000e+01
3.479240e+01 -2.703280e+01 -4.032890e+01
-2.369350e+01 -4.489850e+01 -3.138610e+01
-1.606830e+01 -5.066960e+01 -2.723180e+01
3.857080e+01 -1.951170e+01 -4.130780e+01
-3.450360e+01 -3.345610e+01 -3.537520e+01
-3.062530e+01 -3.670730e+01 -3.577820e+01
3.248960e+01 -3.154820e+01 -3.913790e+01
-1.919260e+01 -4.896720e+01 -2.851230e+01
