1.440360e+01 -1.933500e+01 1.598080e+01
1.527500e+01 -2.018600e+01 1.560400e+01
1.229540e+01 -1.933470e+01 1.603360e+01
1.453860e+01 -2.170520e+01 1.515080e+01
1.224500e+01 -2.170430e+01 1.523420e+01
1.144700e+01 -2.018600e+01 1.563700e+01
1.601700e+01 -1.867300e+01 1.587900e+01
1.447440e+01 -1.716660e+01 1.621120e+01
1.688690e+01 -1.952590e+01 1.540330e+01
1.217490e+01 -1.716690e+01 1.619910e+01
1.682600e+01 -2.171530e+01 1.444740e+01
1.443220e+01 -2.355000e+01 1.403680e+01
9.913890e+00 -1.943640e+01 1.518980e+01
1.245600e+01 -2.355040e+01 1.409220e+01
1.005660e+01 -2.162250e+01 1.450490e+01
1.609400e+01 -2.324800e+01 1.386900e+01
1.078000e+01 -2.325700e+01 1.371100e+01
1.535500e+01 -2.402200e+01 1.338900e+01
1.156400e+01 -2.402500e+01 1.343900e+01
9.669860e+00 -1.727710e+01 1.529990e+01
1.834500e+01 -2.134650e+01 1.378450e+01
1.897690e+01 -1.935100e+01 1.439890e+01
1.686870e+01 -2.365620e+01 1.278550e+01
9.244000e+00 -2.249900e+01 1.347600e+01
8.190330e+00 -2.122330e+01 1.394600e+01
9.902800e+00 -2.374140e+01 1.271020e+01
1.448320e+01 -2.512160e+01 1.228580e+01
1.904860e+01 -1.716940e+01 1.478680e+01
1.236480e+01 -2.519570e+01 1.242330e+01
7.752130e+00 -1.935910e+01 1.413560e+01
1.862170e+01 -2.277670e+01 1.233100e+01
1.947730e+01 -2.137520e+01 1.279920e+01
1.983800e+01 -2.022600e+01 1.328500e+01
1.614600e+01 -2.483700e+01 1.157600e+01
1.047350e+01 -2.483300e+01 1.186650e+01
7.631220e+00 -1.717940e+01 1.421730e+01
7.217000e+00 -2.150000e+01 1.314770e+01
6.936000e+00 -2.022800e+01 1.349400e+01
7.922600e+00 -2.283640e+01 1.236760e+01
1.765100e+01 -2.409300e+01 1.078200e+01
2.055770e+01 -1.717830e+01 1.385070e+01
2.108070e+01 -1.922580e+01 1.262180e+01
2.060600e+01 -2.102700e+01 1.150300e+01
1.013300e+01 -2.538500e+01 1.035770e+01
5.903400e+00 -1.933480e+01 1.256160e+01
5.863000e+00 -2.101930e+01 1.215650e+01
1.988600e+01 -2.258700e+01 9.987000e+00
7.653500e+00 -2.391470e+01 1.062220e+01
1.543900e+01 -2.566100e+01 9.081000e+00
2.168750e+01 -1.719120e+01 1.264070e+01
2.135680e+01 -2.085900e+01 1.048100e+01
5.440000e+00 -1.720430e+01 1.221830e+01
1.694400e+01 -2.490300e+01 8.185000e+00
2.208800e+01 -1.951200e+01 1.088100e+01
6.068670e+00 -2.283730e+01 1.042500e+01
1.917800e+01 -2.336700e+01 8.229000e+00
1.244030e+01 -2.643870e+01 8.279330e+00
8.630000e+00 -2.491200e+01 8.755000e+00
4.752500e+00 -1.913050e+01 1.104250e+01
4.979250e+00 -2.124820e+01 1.026830e+01
2.308430e+01 -1.901370e+01 9.891330e+00
2.176750e+01 -2.145200e+01 8.007000e+00
2.286300e+01 -2.030000e+01 8.800000e+00
4.039000e+00 -2.030900e+01 9.473000e+00
2.368950e+01 -1.721900e+01 9.956500e+00
3.654000e+00 -1.877300e+01 9.619250e+00
9.409000e+00 -2.572000e+01 6.066000e+00
5.190000e+00 -2.304350e+01 7.444000e+00
3.651250e+00 -2.112300e+01 7.814000e+00
6.345000e+00 -2.421700e+01 6.034000e+00
2.399150e+01 -1.915150e+01 8.008000e+00
2.434300e+01 -1.799500e+01 8.651000e+00
2.687500e+00 -1.901980e+01 7.836500e+00
2.439600e+01 -1.953900e+01 6.600000e+00
2.366700e+01 -2.055870e+01 5.428330e+00
2.513300e+01 -1.800700e+01 7.132000e+00
2.492500e+00 -2.080450e+01 5.717500e+00
1.404600e+00 -1.874460e+01 5.749600e+00
2.578460e+01 -1.863440e+01 5.367400e+00
3.255000e+00 -2.201200e+01 3.600000e+00
1.718000e+00 -2.045000e+01 4.857000e+00
1.781300e+01 -2.498700e+01 -6.200000e-02
2.371500e+01 -2.105800e+01 1.767000e+00
2.005400e+01 -2.342800e+01 2.700000e-02
2.523600e+01 -2.031500e+01 2.537000e+00
4.023000e+00 -2.283700e+01 1.296000e+00
2.636850e+01 -1.918400e+01 3.318500e+00
1.324000e+00 -2.089100e+01 2.808000e+00
2.225100e+01 -2.184000e+01 -1.150000e-01
4.083330e-01 -1.897500e+01 3.340000e+00
2.479000e+00 -2.208000e+01 1.198000e+00
1.931900e+01 -2.424000e+01 -1.878000e+00
2.753600e+01 -1.805900e+01 2.815000e+00
1.021500e+01 -2.659500e+01 -1.946000e+00
2.679600e+01 -1.957700e+01 1.521000e+00
1.490000e-01 -1.977700e+01 1.951000e+00
7.135000e+00 -2.511900e+01 -1.797000e+00
2.604600e+01 -2.032900e+01 5.170000e-01
5.440000e-01 -2.094100e+01 1.086500e+00
2.453900e+01 -2.110300e+01 -1.238000e+00
1.741650e+01 -2.579850e+01 -3.293500e+00
2.006900e+01 -2.425400e+01 -3.065000e+00
2.797250e+01 -1.845950e+01 1.127500e+00
1.551300e+01 -2.657700e+01 -3.731000e+00
-6.443330e-01 -1.905170e+01 9.483330e-01
1.916340e+01 -2.533900e+01 -3.531000e+00
9.375000e-01 -2.173200e+01 -7.940000e-01
2.608250e+01 -2.074500e+01 -1.225000e+00
2.127080e+01 -2.364280e+01 -3.728800e+00
4.820000e+00 -2.363800e+01 -3.155000e+00
1.702530e+01 -2.658470e+01 -4.658330e+00
2.082600e+01 -2.503900e+01 -4.163000e+00
7.910000e+00 -2.589500e+01 -4.387000e+00
3.279000e+00 -2.288900e+01 -3.139000e+00
9.435000e+00 -2.663800e+01 -4.614000e+00
2.649350e+01 -2.116600e+01 -2.463000e+00
2.918100e+01 -1.734300e+01 -7.400000e-02
2.307600e+01 -2.195500e+01 -4.400000e+00
-6.170000e-01 -2.059200e+01 -1.303000e+00
2.764200e+01 -2.040300e+01 -1.794000e+00
2.856460e+01 -1.902800e+01 -1.011000e+00
1.949770e+01 -2.639750e+01 -5.010250e+00
1.473420e+01 -2.775470e+01 -5.580830e+00
-1.418000e+00 -1.907870e+01 -1.209000e+00
1.245500e+01 -2.777130e+01 -5.855330e+00
1.701380e+01 -2.774930e+01 -5.663170e+00
2.422500e+01 -2.196650e+01 -4.659500e+00
2.234400e+01 -2.352500e+01 -5.392330e+00
5.750000e-01 -2.211800e+01 -3.154500e+00
2.159290e+01 -2.583590e+01 -5.467860e+00
7.908000e+00 -2.642100e+01 -5.972330e+00
1.056000e+01 -2.741200e+01 -6.305000e+00
6.376000e+00 -2.516800e+01 -6.034000e+00
1.914620e+01 -2.768080e+01 -6.133000e+00
5.608000e+00 -2.441300e+01 -6.205000e+00
-9.840000e-01 -2.097150e+01 -3.100500e+00
2.311400e+01 -2.507600e+01 -5.758000e+00
2.525000e+00 -2.289500e+01 -5.357000e+00
2.921300e+01 -1.968100e+01 -2.707000e+00
2.615830e+01 -2.199470e+01 -4.812330e+00
2.377660e+01 -2.344690e+01 -5.980630e+00
2.845430e+01 -2.084350e+01 -3.595250e+00
1.243530e+01 -2.894130e+01 -7.160330e+00
1.700270e+01 -2.892470e+01 -7.000330e+00
1.471130e+01 -2.893100e+01 -7.272000e+00
1.006400e+01 -2.841900e+01 -7.224430e+00
-2.173000e+00 -1.906630e+01 -3.329000e+00
2.579700e+01 -2.279250e+01 -5.976500e+00
7.141000e+00 -2.670500e+01 -7.603000e+00
3.001170e+01 -1.894270e+01 -3.584330e+00
2.771500e+01 -2.202800e+01 -5.276000e+00
1.948950e+01 -2.874480e+01 -7.397750e+00
6.378000e+00 -2.595100e+01 -7.928000e+00
1.374500e+00 -2.289800e+01 -6.434000e+00
2.237500e+01 -2.665800e+01 -7.535000e+00
2.352500e+01 -2.551250e+01 -7.500500e+00
8.112710e+00 -2.812790e+01 -8.200710e+00
-1.353000e+00 -2.135300e+01 -5.330330e+00
1.241730e+01 -3.050000e+01 -8.357220e+00
2.138960e+01 -2.808940e+01 -8.143000e+00
1.469560e+01 -3.048990e+01 -8.443220e+00
1.699260e+01 -3.048860e+01 -8.262330e+00
1.015840e+01 -3.052890e+01 -8.379670e+00
4.089000e+00 -2.367500e+01 -8.861000e+00
2.469400e+01 -2.439300e+01 -8.302000e+00
2.622900e+01 -2.336730e+01 -7.741000e+00
1.929710e+01 -3.049510e+01 -8.357440e+00
8.649500e+00 -3.016900e+01 -8.718000e+00
7.126000e+00 -2.865050e+01 -9.261500e+00
-2.926670e+00 -1.904200e+01 -5.844000e+00
4.856000e+00 -2.444500e+01 -9.707000e+00
2.110330e+01 -3.000130e+01 -8.813330e+00
2.855000e+01 -2.210800e+01 -7.444000e+00
2.240000e-01 -2.290300e+01 -8.160000e+00
1.737050e+01 -3.204550e+01 -8.941500e+00
5.390140e+00 -2.609360e+01 -9.991290e+00
2.970400e+01 -2.095000e+01 -6.996500e+00
2.238950e+01 -2.861700e+01 -9.304000e+00
7.665430e+00 -3.069000e+01 -9.498860e+00
5.978170e+00 -2.829020e+01 -1.018270e+01
1.468160e+01 -3.282380e+01 -9.548780e+00
1.239720e+01 -3.283600e+01 -9.613000e+00
2.356050e+01 -2.634900e+01 -1.015250e+01
1.687770e+01 -3.304500e+01 -9.402710e+00
-2.902000e+00 -2.057500e+01 -7.435000e+00
-1.724500e+00 -2.174100e+01 -8.361500e+00
1.930110e+01 -3.282930e+01 -9.410560e+00
1.013730e+01 -3.286990e+01 -9.757670e+00
2.781800e+01 -2.292100e+01 -9.154000e+00
3.314670e+00 -2.395500e+01 -1.076370e+01
2.188680e+01 -3.079400e+01 -9.704670e+00
-3.687000e+00 -1.902670e+01 -7.548330e+00
3.089600e+01 -1.868600e+01 -7.951500e+00
2.348600e+01 -2.842740e+01 -1.061400e+01
6.043800e+00 -3.046080e+01 -1.078180e+01
7.869780e+00 -3.290820e+01 -1.027290e+01
2.164270e+01 -3.285040e+01 -1.010100e+01
2.552300e+01 -2.448000e+01 -1.138600e+01
4.818670e+00 -2.832000e+01 -1.163130e+01
1.700710e+01 -3.514780e+01 -1.009830e+01
1.469040e+01 -3.515720e+01 -1.033710e+01
2.448400e+01 -2.626470e+01 -1.173170e+01
2.358150e+01 -3.057320e+01 -1.078050e+01
1.238970e+01 -3.517400e+01 -1.057730e+01
6.345000e+00 -3.254750e+01 -1.095650e+01
2.906000e+00 -2.449900e+01 -1.226250e+01
1.933370e+01 -3.515310e+01 -1.011180e+01
3.668330e+00 -2.603250e+01 -1.234750e+01
1.751000e+00 -2.372700e+01 -1.198600e+01
1.009820e+01 -3.519240e+01 -1.055130e+01
5.004500e+00 -3.082730e+01 -1.153970e+01
2.454350e+01 -2.812030e+01 -1.181420e+01
2.320970e+01 -3.286970e+01 -1.073700e+01
7.913370e+00 -3.512260e+01 -1.080860e+01
2.708000e+01 -2.374400e+01 -1.206200e+01
2.474900e+01 -2.984400e+01 -1.177600e+01
3.655170e+00 -2.834300e+01 -1.263680e+01
2.167030e+01 -3.518380e+01 -1.048100e+01
5.352430e+00 -3.305940e+01 -1.157430e+01
1.481630e+01 -3.726190e+01 -1.060640e+01
1.237970e+01 -3.710970e+01 -1.070170e+01
2.533550e+01 -2.604150e+01 -1.291470e+01
1.703920e+01 -3.746590e+01 -1.044990e+01
1.006630e+01 -3.712080e+01 -1.083420e+01
1.936920e+01 -3.746580e+01 -1.033220e+01
2.400030e+01 -3.289630e+01 -1.162870e+01
2.551800e+01 -2.834470e+01 -1.277270e+01
3.650830e+00 -3.065930e+01 -1.271270e+01
2.322950e+01 -3.482550e+01 -1.107600e+01
-3.305000e+00 -2.100050e+01 -1.137900e+01
7.779830e+00 -3.688680e+01 -1.110750e+01
1.460920e+01 -3.912210e+01 -1.029340e+01
2.487330e+00 -2.606430e+01 -1.384570e+01
2.169230e+01 -3.712720e+01 -1.061670e+01
-4.462000e+00 -1.748300e+01 -1.084300e+01
5.554330e+00 -3.488270e+01 -1.186980e+01
1.237580e+01 -3.904230e+01 -1.050640e+01
1.704750e+01 -3.939100e+01 -1.011950e+01
-4.467000e+00 -1.826700e+01 -1.105600e+01
2.632100e+01 -2.453500e+01 -1.391700e+01
2.553590e+01 -3.064130e+01 -1.272640e+01
3.725800e+00 -3.281880e+01 -1.257840e+01
2.482000e+00 -2.836800e+01 -1.379970e+01
-6.080000e-01 -2.299800e+01 -1.356200e+01
1.015560e+01 -3.896000e+01 -1.088190e+01
1.939080e+01 -3.939820e+01 -1.031900e+01
2.401550e+01 -3.485350e+01 -1.183350e+01
7.021000e+00 -3.754500e+01 -1.137100e+01
8.513000e+00 -3.828900e+01 -1.121500e+01
2.629370e+01 -2.837600e+01 -1.371530e+01
-4.485000e+00 -1.907100e+01 -1.187600e+01
2.630970e+01 -2.608300e+01 -1.436630e+01
2.485330e+00 -3.068070e+01 -1.366800e+01
9.275000e-01 -2.416930e+01 -1.462900e+01
2.546090e+01 -3.303800e+01 -1.270510e+01
5.536780e+00 -3.681700e+01 -1.204440e+01
2.149790e+01 -3.895210e+01 -1.083770e+01
2.363850e+01 -3.680320e+01 -1.169300e+01
1.497000e+00 -2.589900e+01 -1.504050e+01
3.646000e+00 -3.453350e+01 -1.299020e+01
1.697340e+01 -4.124800e+01 -1.036580e+01
9.306000e+00 -3.985200e+01 -1.133500e+01
1.473400e+01 -4.136780e+01 -1.053710e+01
2.487500e+00 -3.260800e+01 -1.356000e+01
1.255980e+01 -4.092480e+01 -1.088980e+01
2.632000e+01 -3.143900e+01 -1.355200e+01
7.679870e+00 -3.918720e+01 -1.156580e+01
1.497750e+00 -2.858170e+01 -1.479520e+01
1.925920e+01 -4.088440e+01 -1.066560e+01
2.632700e+01 -3.220400e+01 -1.353200e+01
-2.184000e+00 -2.225100e+01 -1.434700e+01
2.557450e+01 -3.488650e+01 -1.269200e+01
2.787100e+01 -2.381330e+01 -1.530300e+01
2.738400e+01 -2.627200e+01 -1.528340e+01
2.097400e+01 -4.060700e+01 -1.112600e+01
2.980650e+01 -2.189300e+01 -1.478650e+01
2.682750e+00 -3.474600e+01 -1.364880e+01
2.761200e+01 -2.853190e+01 -1.487960e+01
1.309170e+00 -3.070530e+01 -1.483130e+01
3.723200e+00 -3.671400e+01 -1.316240e+01
2.338080e+01 -3.922490e+01 -1.187870e+01
1.223950e+01 -4.200300e+01 -1.151170e+01
1.320000e+00 -3.262980e+01 -1.448250e+01
5.529780e+00 -3.914930e+01 -1.247900e+01
2.549560e+01 -3.674160e+01 -1.279040e+01
1.011380e+01 -4.143230e+01 -1.187670e+01
1.788600e+01 -4.216100e+01 -1.136500e+01
2.775360e+01 -3.062810e+01 -1.477070e+01
1.150000e-01 -2.459300e+01 -1.640800e+01
4.196000e-01 -2.627240e+01 -1.634360e+01
-4.537000e+00 -1.993300e+01 -1.448000e+01
1.964350e+01 -4.197770e+01 -1.168300e+01
4.202000e-01 -2.826240e+01 -1.617260e+01
7.911750e+00 -4.135850e+01 -1.243160e+01
1.324500e+00 -3.457420e+01 -1.458800e+01
2.687750e+00 -3.708850e+01 -1.391080e+01
2.842180e+01 -2.596830e+01 -1.656330e+01
2.838000e+01 -2.436470e+01 -1.683630e+01
2.859100e+01 -2.808050e+01 -1.605700e+01
2.147240e+01 -4.157940e+01 -1.214300e+01
2.786870e+01 -3.252120e+01 -1.496870e+01
4.024670e+00 -3.919400e+01 -1.326430e+01
1.210000e-01 -3.034750e+01 -1.617900e+01
2.789760e+01 -3.456160e+01 -1.434680e+01
5.727250e+00 -4.090620e+01 -1.289420e+01
2.523980e+01 -3.916750e+01 -1.298820e+01
1.480180e+01 -4.339220e+01 -1.225630e+01
2.638800e+01 -3.764300e+01 -1.366000e+01
-9.423330e-01 -2.385770e+01 -1.742900e+01
1.380000e-01 -3.227200e+01 -1.586700e+01
2.322440e+01 -4.123960e+01 -1.271760e+01
1.247900e+01 -4.341550e+01 -1.258250e+01
1.054550e+01 -4.303450e+01 -1.282750e+01
1.714920e+01 -4.339070e+01 -1.258370e+01
1.909350e+01 -4.299350e+01 -1.264750e+01
-6.986670e-01 -2.614930e+01 -1.758570e+01
-3.395000e+00 -2.193600e+01 -1.681050e+01
2.863300e+01 -3.229900e+01 -1.575400e+01
2.881000e+00 -3.922420e+01 -1.398350e+01
2.793560e+01 -3.687860e+01 -1.427110e+01
-1.007600e+00 -2.859800e+01 -1.735120e+01
2.641700e+01 -3.918270e+01 -1.371230e+01
2.026700e+01 -4.300800e+01 -1.300000e+01
1.520000e-01 -3.460070e+01 -1.582100e+01
9.435560e-01 -3.691970e+01 -1.502960e+01
7.091000e+00 -4.228200e+01 -1.357300e+01
2.971900e+01 -2.371740e+01 -1.778300e+01
2.968120e+01 -2.633780e+01 -1.745000e+01
2.527600e+01 -4.070700e+01 -1.328200e+01
-1.480500e+00 -2.425900e+01 -1.816050e+01
2.987000e+01 -2.835980e+01 -1.706320e+01
3.059100e+01 -2.155350e+01 -1.774500e+01
-1.067750e+00 -3.037100e+01 -1.721950e+01
-1.494670e+00 -2.616570e+01 -1.820570e+01
-1.500000e+00 -2.768800e+01 -1.803800e+01
5.413800e+00 -4.199580e+01 -1.402400e+01
3.024040e+01 -3.011710e+01 -1.691040e+01
-4.589000e+00 -2.080700e+01 -1.758600e+01
2.963670e+01 -3.479620e+01 -1.561080e+01
-1.439000e+00 -3.230190e+01 -1.713940e+01
1.339830e+00 -3.924980e+01 -1.502120e+01
2.376100e+01 -4.227450e+01 -1.388450e+01
3.016890e+01 -3.232180e+01 -1.664620e+01
3.097300e+01 -2.194850e+01 -1.850900e+01
3.075120e+01 -2.407070e+01 -1.847150e+01
-3.805000e+00 -2.237000e+01 -1.842700e+01
3.072150e+01 -2.600120e+01 -1.829620e+01
3.370880e+00 -4.146440e+01 -1.463940e+01
2.798370e+01 -3.920210e+01 -1.470090e+01
1.011100e+01 -4.409990e+01 -1.437230e+01
-5.415000e+00 -1.849700e+01 -1.777200e+01
3.088800e+01 -2.773500e+01 -1.808500e+01
1.254430e+01 -4.465570e+01 -1.422430e+01
-1.412890e+00 -3.462690e+01 -1.685910e+01
2.979220e+01 -3.675520e+01 -1.551560e+01
1.487830e+01 -4.466100e+01 -1.444230e+01
8.021720e+00 -4.366590e+01 -1.476500e+01
-3.048890e+00 -2.391340e+01 -1.919330e+01
2.581430e+01 -4.173060e+01 -1.441140e+01
2.108220e+01 -4.371950e+01 -1.448270e+01
3.067000e+01 -3.446720e+01 -1.639300e+01
1.892240e+01 -4.432960e+01 -1.461900e+01
1.683150e+01 -4.466250e+01 -1.477200e+01
5.603670e+00 -4.312370e+01 -1.511430e+01
-3.072220e+00 -2.619690e+01 -1.928410e+01
-2.974130e+00 -2.838350e+01 -1.889710e+01
-1.389220e+00 -3.695660e+01 -1.658860e+01
1.741000e+00 -4.119800e+01 -1.544100e+01
3.168050e+01 -3.042250e+01 -1.791500e+01
1.843330e-01 -3.927700e+01 -1.611370e+01
3.254910e+01 -1.925670e+01 -1.904460e+01
2.952100e+01 -3.845600e+01 -1.568200e+01
-3.155000e+00 -3.024090e+01 -1.867290e+01
2.325820e+01 -4.340160e+01 -1.504760e+01
2.787600e+01 -4.105780e+01 -1.514920e+01
3.251630e+01 -2.156740e+01 -1.940320e+01
3.247910e+01 -2.388000e+01 -1.934930e+01
3.244130e+01 -2.619970e+01 -1.916320e+01
3.201200e+01 -3.249440e+01 -1.773020e+01
-5.003250e+00 -2.164430e+01 -1.969280e+01
3.084350e+01 -3.712170e+01 -1.636870e+01
-3.402000e+00 -3.233320e+01 -1.844050e+01
3.241830e+01 -2.812830e+01 -1.889780e+01
2.497000e+01 -4.309500e+01 -1.540800e+01
-2.982330e+00 -3.465500e+01 -1.792130e+01
-5.838250e+00 -1.932670e+01 -1.951150e+01
3.265740e+01 -2.993600e+01 -1.854840e+01
2.537000e+00 -4.238200e+01 -1.609900e+01
3.230560e+01 -3.474930e+01 -1.736110e+01
-1.268370e+00 -3.920210e+01 -1.702080e+01
7.589500e+00 -4.473200e+01 -1.635700e+01
-3.763330e+00 -3.466670e+01 -1.823630e+01
3.041520e+01 -3.933310e+01 -1.634310e+01
2.151100e+01 -4.469550e+01 -1.610100e+01
-2.956000e+00 -3.698930e+01 -1.765430e+01
-4.643000e+00 -2.698900e+01 -2.021900e+01
-4.646500e+00 -2.812500e+01 -1.999800e+01
3.304070e+01 -3.215820e+01 -1.840050e+01
7.732860e-01 -4.173290e+01 -1.670160e+01
3.486340e+01 -1.925130e+01 -1.944610e+01
1.261890e+01 -4.630440e+01 -1.608300e+01
1.494500e+01 -4.630510e+01 -1.616770e+01
-4.921000e+00 -3.020440e+01 -1.971080e+01
-5.297000e+00 -2.387520e+01 -2.078060e+01
1.688720e+01 -4.629120e+01 -1.620770e+01
3.482370e+01 -2.156240e+01 -1.983210e+01
2.826300e+01 -4.212920e+01 -1.621250e+01
-6.229000e+00 -2.012400e+01 -2.052200e+01
3.499400e+00 -4.349960e+01 -1.692020e+01
3.396870e+01 -2.620230e+01 -1.995300e+01
1.031000e+01 -4.630000e+01 -1.630840e+01
5.674830e+00 -4.436750e+01 -1.703170e+01
3.456660e+01 -2.376860e+01 -2.001910e+01
3.328100e+01 -3.426900e+01 -1.812850e+01
3.258320e+01 -3.694600e+01 -1.731310e+01
-5.993000e+00 -2.186700e+01 -2.080030e+01
-7.063000e+00 -1.857200e+01 -2.021100e+01
2.592580e+01 -4.359200e+01 -1.649860e+01
-3.743670e+00 -3.700970e+01 -1.817500e+01
1.883110e+01 -4.628520e+01 -1.640970e+01
-5.522860e+00 -2.571340e+01 -2.086300e+01
1.494080e+01 -4.856910e+01 -1.502120e+01
3.433330e+01 -2.813380e+01 -1.988020e+01
1.261610e+01 -4.857840e+01 -1.508580e+01
2.365050e+01 -4.452600e+01 -1.693730e+01
-5.351110e+00 -3.236690e+01 -1.956230e+01
1.688320e+01 -4.855370e+01 -1.502670e+01
-9.382500e-01 -4.125420e+01 -1.750370e+01
-5.811170e+00 -2.778020e+01 -2.074970e+01
9.538000e+00 -4.782400e+01 -1.577300e+01
8.010890e+00 -4.631560e+01 -1.689210e+01
1.882620e+01 -4.854620e+01 -1.517940e+01
3.717420e+01 -1.923680e+01 -1.941510e+01
3.464290e+01 -3.015020e+01 -1.965260e+01
1.814000e+00 -4.320900e+01 -1.768600e+01
-2.122000e+00 -4.010500e+01 -1.805100e+01
1.040210e+01 -4.868260e+01 -1.538570e+01
3.556450e+01 -2.427300e+01 -2.036200e+01
3.514680e+01 -2.620650e+01 -2.037480e+01
-5.980750e+00 -2.989020e+01 -2.052230e+01
-5.333000e+00 -3.470330e+01 -1.930740e+01
3.028750e+01 -4.147100e+01 -1.709150e+01
-7.928870e+00 -1.945350e+01 -2.089300e+01
-8.660000e+00 -1.780200e+01 -2.039800e+01
3.242470e+01 -3.915240e+01 -1.754070e+01
2.106600e+01 -4.639780e+01 -1.713990e+01
3.713970e+01 -2.156190e+01 -1.997380e+01
3.476830e+01 -3.236060e+01 -1.944380e+01
2.791500e+01 -4.332970e+01 -1.730750e+01
7.846600e+00 -4.814520e+01 -1.608540e+01
3.550450e+01 -2.813400e+01 -2.034000e+01
1.494210e+01 -5.084520e+01 -1.435240e+01
-3.484570e+00 -3.947040e+01 -1.858390e+01
2.134600e+01 -4.799100e+01 -1.614650e+01
2.099020e+01 -4.899680e+01 -1.535080e+01
1.687470e+01 -5.082770e+01 -1.430900e+01
-7.778440e+00 -2.169280e+01 -2.149400e+01
8.183500e+00 -4.917350e+01 -1.560870e+01
2.194500e+01 -4.556200e+01 -1.807100e+01
3.551400e+01 -2.928900e+01 -2.029500e+01
1.261990e+01 -5.087030e+01 -1.457980e+01
3.483620e+01 -3.466430e+01 -1.907280e+01
6.022400e+00 -4.666000e+01 -1.764040e+01
3.712420e+01 -2.388830e+01 -2.055180e+01
1.881470e+01 -5.082540e+01 -1.453180e+01
3.192200e+01 -4.081300e+01 -1.783300e+01
-5.329890e+00 -3.706090e+01 -1.940730e+01
-7.755330e+00 -2.362970e+01 -2.180900e+01
-6.891000e+00 -3.316700e+01 -2.019500e+01
-1.605200e+00 -4.198840e+01 -1.860980e+01
1.029370e+01 -5.089410e+01 -1.495230e+01
3.948490e+01 -1.922220e+01 -1.938000e+01
-1.037900e+01 -1.749640e+01 -2.041320e+01
5.345250e+00 -4.598680e+01 -1.837570e+01
3.218250e+00 -4.462400e+01 -1.880900e+01
-7.763780e+00 -2.554260e+01 -2.185470e+01
-6.896000e+00 -3.434450e+01 -2.009750e+01
2.966600e+01 -4.314200e+01 -1.797000e+01
2.310200e+01 -4.707200e+01 -1.754000e+01
-7.765440e+00 -2.782890e+01 -2.162580e+01
5.690780e+00 -4.864590e+01 -1.670770e+01
-1.019660e+01 -1.935820e+01 -2.105490e+01
3.491840e+01 -3.697210e+01 -1.889340e+01
2.114840e+01 -5.082170e+01 -1.490980e+01
-4.785000e+00 -3.888300e+01 -1.945470e+01
2.581470e+01 -4.476800e+01 -1.865830e+01
-7.737440e+00 -3.013180e+01 -2.132910e+01
3.711440e+01 -2.621270e+01 -2.104040e+01
3.345200e+01 -3.966900e+01 -1.845100e+01
3.945240e+01 -2.155380e+01 -1.996000e+01
1.088670e+00 -4.391030e+01 -1.913870e+01
7.971440e+00 -5.091340e+01 -1.530200e+01
2.347710e+01 -4.856300e+01 -1.653310e+01
3.119700e+01 -4.236700e+01 -1.815400e+01
-7.798750e+00 -3.234110e+01 -2.097190e+01
3.709230e+01 -2.814070e+01 -2.104820e+01
2.361690e+01 -4.612930e+01 -1.878260e+01
-3.392670e+00 -4.146150e+01 -1.942430e+01
-1.016380e+01 -2.169120e+01 -2.179670e+01
3.711090e+01 -3.006600e+01 -2.096210e+01
2.386950e+01 -5.007100e+01 -1.589200e+01
3.944140e+01 -2.387930e+01 -2.062170e+01
6.428500e+00 -5.131300e+01 -1.553000e+01
1.486960e+01 -5.308130e+01 -1.457790e+01
2.814620e+01 -4.436750e+01 -1.913320e+01
3.639000e+01 -3.467300e+01 -2.012170e+01
-1.239000e+00 -4.326830e+01 -1.966270e+01
1.264000e+01 -5.319820e+01 -1.466920e+01
-7.913000e+00 -3.488740e+01 -2.072370e+01
-9.988600e+00 -2.355640e+01 -2.224880e+01
2.337940e+01 -5.104830e+01 -1.549330e+01
3.442890e+00 -4.641280e+01 -1.928690e+01
-9.548750e+00 -2.536800e+01 -2.234850e+01
1.040210e+01 -5.299800e+01 -1.484310e+01
3.713100e+01 -3.237160e+01 -2.072300e+01
3.974250e+00 -4.888180e+01 -1.752520e+01
5.457000e+00 -5.084710e+01 -1.618730e+01
4.179760e+01 -1.920870e+01 -1.953520e+01
1.673090e+01 -5.328530e+01 -1.475460e+01
3.284490e+01 -4.171360e+01 -1.902910e+01
1.882070e+01 -5.315170e+01 -1.469340e+01
3.490710e+01 -3.920390e+01 -1.937850e+01
-1.255280e+01 -1.935620e+01 -2.103370e+01
2.572400e+01 -4.866610e+01 -1.730450e+01
3.046670e+01 -4.357000e+01 -1.920150e+01
4.151230e+01 -2.127470e+01 -2.002980e+01
-9.538000e+00 -2.806130e+01 -2.232600e+01
7.960170e+00 -5.285850e+01 -1.519420e+01
3.645500e+01 -3.659600e+01 -1.998850e+01
2.558730e+01 -4.660600e+01 -1.937180e+01
6.429000e+00 -5.248300e+01 -1.553700e+01
-5.784400e+00 -3.960800e+01 -2.052820e+01
-7.698890e+00 -3.713170e+01 -2.071460e+01
2.660900e+01 -4.782300e+01 -1.815100e+01
3.039500e+00 -4.834150e+01 -1.849370e+01
3.945340e+01 -2.620630e+01 -2.145840e+01
2.116890e+01 -5.314160e+01 -1.499500e+01
-1.094100e+01 -2.402500e+01 -2.252100e+01
-9.714000e+00 -3.019220e+01 -2.230780e+01
-1.253640e+01 -2.168370e+01 -2.178120e+01
-1.061700e+01 -2.572920e+01 -2.269800e+01
7.145000e-01 -4.487550e+01 -2.065850e+01
9.908500e+00 -5.401650e+01 -1.508600e+01
3.758050e+01 -3.468120e+01 -2.077680e+01
2.582680e+01 -5.085080e+01 -1.651260e+01
3.397000e+00 -5.062550e+01 -1.732020e+01
4.228700e+01 -2.204500e+01 -2.045700e+01
-9.684170e+00 -3.250800e+01 -2.204430e+01
-1.173300e+01 -2.402300e+01 -2.253100e+01
-4.174330e+00 -4.229200e+01 -2.062170e+01
2.649000e+00 -4.950100e+01 -1.821300e+01
-1.060680e+01 -2.774080e+01 -2.279600e+01
3.945850e+01 -2.814480e+01 -2.183800e+01
3.431050e+01 -4.125200e+01 -1.992350e+01
2.637970e+01 -4.586900e+01 -2.060130e+01
2.894700e+01 -4.479300e+01 -2.041100e+01
4.176970e+01 -2.385790e+01 -2.093040e+01
2.342330e+01 -5.304600e+01 -1.548690e+01
2.738600e+01 -4.933500e+01 -1.762300e+01
3.242200e+01 -4.319600e+01 -1.998500e+01
7.973000e+00 -5.404970e+01 -1.552330e+01
5.527200e+00 -5.298220e+01 -1.612700e+01
-1.267940e+01 -2.355240e+01 -2.232080e+01
1.919000e+00 -4.723200e+01 -2.021000e+01
3.948770e+01 -3.007580e+01 -2.193240e+01
1.107000e+00 -4.623440e+01 -2.095230e+01
-1.106600e+00 -4.442040e+01 -2.138080e+01
4.400810e+01 -1.897800e+01 -1.991170e+01
-1.005520e+01 -3.484600e+01 -2.180660e+01
-1.487320e+01 -1.935810e+01 -2.130930e+01
3.749540e+01 -3.711000e+01 -2.090390e+01
3.582600e+01 -4.009400e+01 -2.045200e+01
1.190500e+01 -5.482700e+01 -1.574800e+01
-1.090170e+01 -3.022930e+01 -2.285400e+01
1.663330e+00 -4.852170e+01 -1.961530e+01
2.780200e+01 -4.711500e+01 -1.999250e+01
-1.250440e+01 -2.558480e+01 -2.281090e+01
-7.601250e+00 -3.941200e+01 -2.152400e+01
3.950800e+01 -3.238190e+01 -2.173800e+01
-3.442250e+00 -4.354070e+01 -2.137200e+01
2.828090e+01 -4.851250e+01 -1.897780e+01
-1.087670e+01 -3.255100e+01 -2.263430e+01
4.178910e+01 -2.619320e+01 -2.181310e+01
-5.670000e+00 -4.182320e+01 -2.153130e+01
-1.485740e+01 -2.169870e+01 -2.191980e+01
3.407440e+00 -5.256680e+01 -1.719380e+01
2.770000e+01 -5.102400e+01 -1.740640e+01
4.450400e+01 -1.996800e+01 -2.034000e+01
1.270750e+01 -5.524370e+01 -1.618250e+01
4.411210e+01 -2.151710e+01 -2.072310e+01
2.431800e+01 -5.393300e+01 -1.597400e+01
2.831670e+01 -4.615940e+01 -2.125870e+01
1.442020e+01 -5.531420e+01 -1.625460e+01
1.657300e+01 -5.521270e+01 -1.625500e+01
3.071570e+01 -4.461620e+01 -2.135320e+01
2.584780e+01 -5.316310e+01 -1.635920e+01
-9.950250e+00 -3.710200e+01 -2.191590e+01
1.035950e+01 -5.526180e+01 -1.628680e+01
-1.249070e+01 -2.793120e+01 -2.326060e+01
3.955470e+01 -3.469230e+01 -2.166960e+01
-1.484230e+01 -2.364900e+01 -2.232820e+01
4.160620e+01 -2.794670e+01 -2.224220e+01
1.888630e+01 -5.519550e+01 -1.639870e+01
3.735630e+01 -3.932740e+01 -2.118200e+01
1.142440e+00 -5.033040e+01 -1.920280e+01
5.450000e-01 -4.803100e+01 -2.086400e+01
4.105700e+01 -2.931200e+01 -2.249900e+01
3.534010e+01 -4.177640e+01 -2.115490e+01
8.023830e+00 -5.527730e+01 -1.644730e+01
4.566400e+01 -1.841600e+01 -2.002200e+01
4.411340e+01 -2.384330e+01 -2.137300e+01
3.303970e+01 -4.382250e+01 -2.144820e+01
2.121780e+01 -5.516800e+01 -1.646400e+01
-6.887000e+00 -4.147350e+01 -2.221400e+01
2.876320e+01 -5.070600e+01 -1.838950e+01
-1.247900e+01 -3.027280e+01 -2.340860e+01
5.717780e+00 -5.489940e+01 -1.680370e+01
-1.482590e+01 -2.561010e+01 -2.295120e+01
-9.529000e+00 -3.903630e+01 -2.230470e+01
4.108630e+01 -3.239130e+01 -2.238870e+01
4.221500e+01 -2.853700e+01 -2.263500e+01
-5.264000e+00 -4.340500e+01 -2.242300e+01
3.001600e+01 -4.913570e+01 -1.972530e+01
3.961900e+01 -3.701100e+01 -2.181170e+01
-1.639600e+01 -2.250100e+01 -2.236100e+01
-1.246280e+01 -3.260420e+01 -2.331590e+01
2.355330e+01 -5.514770e+01 -1.666180e+01
-8.485000e+00 -4.033800e+01 -2.266700e+01
-1.718610e+01 -1.937080e+01 -2.194440e+01
4.195640e+01 -3.018610e+01 -2.283550e+01
2.795230e+01 -5.318830e+01 -1.739600e+01
4.412640e+01 -2.618100e+01 -2.207930e+01
4.645700e+01 -1.918760e+01 -2.057930e+01
4.335700e+01 -2.774800e+01 -2.245700e+01
-1.701920e+01 -2.125360e+01 -2.228920e+01
-1.083600e+01 -3.802100e+01 -2.263500e+01
-2.118000e+00 -4.495400e+01 -2.340100e+01
3.024360e+01 -4.669420e+01 -2.199100e+01
3.723500e+01 -4.109050e+01 -2.184270e+01
3.694830e+00 -5.467870e+01 -1.762650e+01
4.609980e+01 -2.151270e+01 -2.110980e+01
3.478650e+01 -4.324850e+01 -2.212400e+01
-1.243420e+01 -3.493290e+01 -2.308120e+01
4.113500e+01 -3.470700e+01 -2.242500e+01
1.153670e+00 -5.267220e+01 -1.901360e+01
-3.703670e+00 -4.445400e+01 -2.335270e+01
-1.318500e+00 -4.612530e+01 -2.327370e+01
-9.322000e-01 -4.836880e+01 -2.190920e+01
3.081050e+01 -4.840080e+01 -2.090870e+01
-1.482000e+01 -2.797280e+01 -2.372840e+01
1.431470e+01 -5.687480e+01 -1.736150e+01
1.237200e+01 -5.689170e+01 -1.741300e+01
4.610950e+01 -2.383600e+01 -2.154380e+01
3.943080e+01 -3.908630e+01 -2.216820e+01
-1.725540e+01 -2.339310e+01 -2.277040e+01
3.030340e+01 -5.103300e+01 -1.935160e+01
2.587170e+01 -5.514950e+01 -1.725380e+01
-7.914710e+00 -4.202090e+01 -2.322130e+01
4.117200e+01 -3.624900e+01 -2.240000e+01
2.895650e+01 -5.320750e+01 -1.811200e+01
4.228070e+01 -3.241000e+01 -2.304570e+01
1.662990e+01 -5.702200e+01 -1.751000e+01
1.042530e+01 -5.691420e+01 -1.760980e+01
1.893580e+01 -5.682050e+01 -1.747680e+01
-1.793800e+01 -2.173200e+01 -2.258800e+01
4.431080e+01 -2.821620e+01 -2.272400e+01
3.095780e+01 -4.603700e+01 -2.322550e+01
8.084170e+00 -5.691150e+01 -1.753370e+01
-1.195560e+00 -5.039200e+01 -2.109080e+01
-5.701000e+00 -4.384150e+01 -2.368550e+01
5.761330e+00 -5.651870e+01 -1.762170e+01
-1.032880e+01 -3.986730e+01 -2.341720e+01
2.741500e+01 -5.476400e+01 -1.772700e+01
-1.241700e+01 -3.728390e+01 -2.330800e+01
2.125580e+01 -5.678970e+01 -1.754970e+01
-1.690250e+00 -4.769250e+01 -2.313670e+01
-1.481770e+01 -3.032680e+01 -2.412510e+01
2.357300e+01 -5.636330e+01 -1.751270e+01
-1.871650e+01 -1.898700e+01 -2.241550e+01
-1.714510e+01 -2.564520e+01 -2.335420e+01
4.603860e+01 -2.601800e+01 -2.218500e+01
2.948670e+00 -5.550630e+01 -1.827500e+01
4.231950e+01 -3.472030e+01 -2.297280e+01
3.288900e+01 -4.487330e+01 -2.373230e+01
4.398600e+01 -2.998710e+01 -2.330560e+01
3.132350e+01 -5.057200e+01 -2.050200e+01
4.010700e+01 -3.974050e+01 -2.259400e+01
3.747330e+01 -4.209750e+01 -2.305800e+01
3.040060e+01 -5.299910e+01 -1.884900e+01
4.184900e+01 -3.702980e+01 -2.275930e+01
4.825770e+01 -1.929760e+01 -2.123060e+01
3.242960e+01 -4.882520e+01 -2.167200e+01
-2.952000e+00 -4.578800e+01 -2.468900e+01
-7.300000e+00 -4.348700e+01 -2.406450e+01
2.550250e+01 -5.635250e+01 -1.785300e+01
-1.481270e+01 -3.267110e+01 -2.430300e+01
4.810210e+01 -2.151320e+01 -2.159890e+01
3.539000e+01 -4.387700e+01 -2.365370e+01
1.434900e+01 -5.810170e+01 -1.811930e+01
1.665850e+01 -5.806650e+01 -1.810050e+01
4.653400e+01 -2.695900e+01 -2.259800e+01
4.614020e+01 -2.812950e+01 -2.278780e+01
1.277500e+00 -5.495700e+01 -1.943880e+01
-1.968940e+01 -1.949370e+01 -2.282490e+01
-1.440550e+01 -3.499630e+01 -2.418980e+01
-1.945770e+01 -2.133520e+01 -2.303050e+01
-9.922400e+00 -4.150120e+01 -2.416920e+01
1.202530e+01 -5.813900e+01 -1.840030e+01
-1.714630e+01 -2.801200e+01 -2.419990e+01
2.835620e+01 -5.525060e+01 -1.847580e+01
1.897170e+01 -5.804470e+01 -1.828900e+01
4.813510e+01 -2.383880e+01 -2.199860e+01
4.387280e+01 -3.243920e+01 -2.387720e+01
-6.137000e+00 -4.427700e+01 -2.491600e+01
3.268370e+01 -4.654290e+01 -2.397330e+01
-2.806670e+00 -5.042630e+01 -2.223670e+01
4.773450e+01 -2.539600e+01 -2.235250e+01
1.008550e+01 -5.816650e+01 -1.866700e+01
4.149090e+01 -3.946740e+01 -2.300110e+01
-3.563500e+00 -4.600700e+01 -2.519600e+01
-1.177440e+00 -5.274800e+01 -2.114460e+01
-1.944810e+01 -2.329630e+01 -2.343820e+01
-1.676450e+01 -2.958450e+01 -2.459750e+01
-1.233460e+01 -3.956200e+01 -2.415530e+01
-3.422500e+00 -4.838600e+01 -2.380870e+01
3.712200e+01 -4.329100e+01 -2.396100e+01
2.359720e+01 -5.758130e+01 -1.837520e+01
8.142000e+00 -5.817030e+01 -1.868970e+01
2.128970e+01 -5.802070e+01 -1.852270e+01
5.818000e+00 -5.778450e+01 -1.882220e+01
3.923740e+01 -4.182900e+01 -2.367360e+01
3.348550e+01 -4.850770e+01 -2.278900e+01
3.207500e+01 -5.286050e+01 -2.002250e+01
-1.431340e+01 -3.717920e+01 -2.434160e+01
3.288330e+01 -5.096970e+01 -2.129970e+01
4.591590e+01 -3.019890e+01 -2.368880e+01
4.391150e+01 -3.475450e+01 -2.398780e+01
3.607370e+00 -5.731660e+01 -1.923440e+01
-1.944630e+01 -2.565960e+01 -2.400260e+01
4.826500e+01 -2.640440e+01 -2.283270e+01
2.602240e+01 -5.739390e+01 -1.877640e+01
-1.166800e+01 -4.123500e+01 -2.474500e+01
-3.754000e+00 -4.738300e+01 -2.530100e+01
4.971070e+01 -2.151770e+01 -2.217530e+01
-1.726910e+01 -3.060770e+01 -2.503440e+01
-1.558830e+01 -3.503470e+01 -2.491070e+01
3.062720e+01 -5.489550e+01 -1.956380e+01
-1.894170e+01 -2.750230e+01 -2.443830e+01
5.000450e+01 -1.919500e+01 -2.201230e+01
-2.792000e+00 -5.199400e+01 -2.242300e+01
4.365720e+01 -3.715290e+01 -2.377600e+01
-4.023170e+00 -5.046180e+01 -2.320170e+01
-1.089300e+01 -4.201600e+01 -2.510500e+01
-1.400300e+01 -3.890400e+01 -2.467700e+01
3.207100e+01 -5.402000e+01 -2.003200e+01
-7.753000e+00 -4.406900e+01 -2.583400e+01
4.160000e-01 -5.589200e+01 -2.046600e+01
3.828200e+01 -4.330300e+01 -2.460100e+01
3.368850e+01 -4.608750e+01 -2.543350e+01
4.976600e+01 -2.306900e+01 -2.247000e+01
4.816530e+01 -2.813700e+01 -2.325700e+01
1.976500e+00 -5.706100e+01 -1.992850e+01
-4.992000e+00 -4.586520e+01 -2.633380e+01
4.577150e+01 -3.235400e+01 -2.436960e+01
-1.323000e+01 -4.047000e+01 -2.481000e+01
1.437420e+01 -5.973370e+01 -1.919780e+01
-2.137550e+01 -1.939630e+01 -2.373380e+01
3.325050e+01 -5.287950e+01 -2.092150e+01
1.668640e+01 -5.969940e+01 -1.925440e+01
2.813720e+01 -5.706350e+01 -1.935450e+01
4.121970e+01 -4.149570e+01 -2.414040e+01
1.205200e+01 -5.976420e+01 -1.939380e+01
-1.011620e+01 -4.318780e+01 -2.557520e+01
3.714100e+01 -4.411350e+01 -2.532150e+01
-1.716380e+01 -3.273680e+01 -2.540370e+01
-2.136200e+01 -2.134200e+01 -2.396380e+01
3.484350e+01 -4.493850e+01 -2.612150e+01
3.477140e+01 -4.887420e+01 -2.366200e+01
4.510670e+01 -3.477470e+01 -2.452470e+01
-1.538100e+01 -3.756270e+01 -2.510250e+01
1.019540e+01 -5.963720e+01 -1.966480e+01
1.900130e+01 -5.967340e+01 -1.944540e+01
-1.081250e+00 -5.501870e+01 -2.159220e+01
4.360340e+01 -3.937230e+01 -2.393230e+01
3.445200e+01 -5.099700e+01 -2.246100e+01
-2.135650e+01 -2.329870e+01 -2.426880e+01
-1.971700e+01 -2.830270e+01 -2.498720e+01
8.292570e+00 -5.958510e+01 -1.980770e+01
-1.262540e+01 -4.173380e+01 -2.533460e+01
-2.098000e+01 -2.527450e+01 -2.454850e+01
2.131210e+01 -5.963610e+01 -1.953620e+01
6.059250e+00 -5.924220e+01 -1.998700e+01
5.086930e+01 -2.152770e+01 -2.279230e+01
3.003830e+01 -5.663470e+01 -1.994670e+01
2.758000e+00 -5.826600e+01 -2.035100e+01
5.118970e+01 -1.920430e+01 -2.261400e+01
-5.348000e+00 -4.820300e+01 -2.579670e+01
4.822990e+01 -3.010410e+01 -2.411420e+01
3.465780e+01 -4.667550e+01 -2.594000e+01
3.523800e+01 -4.798300e+01 -2.479800e+01
3.497900e+01 -5.050200e+01 -2.312730e+01
2.351690e+01 -5.937810e+01 -1.961890e+01
5.063320e+01 -2.395310e+01 -2.308340e+01
-5.243000e+00 -5.050230e+01 -2.430600e+01
-1.480030e+01 -3.971390e+01 -2.541870e+01
-3.684750e+00 -5.289580e+01 -2.324150e+01
4.513770e+01 -3.708730e+01 -2.461630e+01
9.608570e-01 -5.759230e+01 -2.089140e+01
-1.716430e+01 -3.508270e+01 -2.586560e+01
4.670400e+01 -3.324400e+01 -2.499700e+01
-1.947220e+01 -3.040990e+01 -2.562700e+01
-8.585000e+00 -4.438100e+01 -2.710200e+01
-2.251970e+01 -1.940530e+01 -2.433370e+01
3.921640e+01 -4.379740e+01 -2.569100e+01
4.325050e+01 -4.093850e+01 -2.454300e+01
2.575600e+01 -5.899270e+01 -2.001320e+01
4.787250e+01 -3.167550e+01 -2.466850e+01
3.475160e+01 -5.268000e+01 -2.215960e+01
3.296650e+01 -5.492390e+01 -2.114510e+01
5.056270e+01 -2.619780e+01 -2.357140e+01
-2.156150e+01 -2.587500e+01 -2.499400e+01
3.523200e+01 -5.177200e+01 -2.272800e+01
4.631900e+01 -3.479720e+01 -2.508950e+01
9.717000e+00 -6.058500e+01 -2.026100e+01
-2.251050e+01 -2.135050e+01 -2.460350e+01
-6.230330e+00 -4.592300e+01 -2.773200e+01
4.173350e+01 -4.251700e+01 -2.518700e+01
7.778000e+00 -6.059150e+01 -2.033100e+01
4.515850e+01 -3.900950e+01 -2.460950e+01
2.903100e+01 -5.796600e+01 -2.047200e+01
-6.192000e+00 -4.746500e+01 -2.703000e+01
-1.230800e+01 -4.304970e+01 -2.632950e+01
1.435770e+01 -6.132300e+01 -2.012170e+01
1.281000e+01 -6.133500e+01 -2.011200e+01
5.685800e+00 -6.029780e+01 -2.060060e+01
3.601300e+01 -4.498300e+01 -2.765100e+01
-6.063670e+00 -5.053670e+01 -2.530200e+01
-1.987000e+00 -5.592200e+01 -2.265800e+01
1.685900e+01 -6.146780e+01 -2.013100e+01
-1.910120e+01 -3.277280e+01 -2.624120e+01
3.524700e+01 -4.614400e+01 -2.744100e+01
-6.000000e-01 -5.729380e+01 -2.194650e+01
-2.138730e+01 -2.805820e+01 -2.558330e+01
5.059650e+01 -2.815920e+01 -2.413850e+01
-1.482020e+01 -4.142680e+01 -2.609500e+01
-1.716010e+01 -3.742300e+01 -2.631110e+01
1.882200e+01 -6.154560e+01 -2.014000e+01
2.090750e+01 -6.121050e+01 -2.017050e+01
2.400200e+01 -6.039800e+01 -2.035350e+01
3.622150e+01 -5.047000e+01 -2.428750e+01
5.010000e+01 -2.959170e+01 -2.446730e+01
3.506560e+00 -5.984250e+01 -2.105570e+01
3.082730e+01 -5.743920e+01 -2.103170e+01
3.443600e+01 -5.445700e+01 -2.207400e+01
4.841530e+01 -3.268870e+01 -2.523490e+01
-5.185670e+00 -5.283600e+01 -2.445900e+01
3.654500e+01 -4.827100e+01 -2.592230e+01
-6.952000e+00 -4.902800e+01 -2.655100e+01
4.634470e+01 -3.713220e+01 -2.548880e+01
2.608840e+01 -6.005300e+01 -2.065700e+01
-2.366700e+01 -1.941870e+01 -2.508250e+01
-2.328470e+01 -2.332430e+01 -2.538120e+01
4.375400e+01 -4.195470e+01 -2.553340e+01
-3.574440e+00 -5.515620e+01 -2.371890e+01
1.231520e+01 -6.225540e+01 -2.045000e+01
4.135770e+01 -4.371520e+01 -2.631480e+01
-1.898200e+01 -3.460430e+01 -2.676800e+01
-2.366620e+01 -2.137130e+01 -2.534000e+01
5.279370e+01 -1.923480e+01 -2.381940e+01
1.432480e+01 -6.247120e+01 -2.045120e+01
1.648680e+01 -6.250380e+01 -2.031440e+01
-1.677400e+01 -3.937500e+01 -2.665620e+01
1.044760e+01 -6.211480e+01 -2.077980e+01
-7.615710e+00 -4.608360e+01 -2.871300e+01
5.248720e+01 -2.389170e+01 -2.416770e+01
5.273550e+01 -2.156790e+01 -2.411850e+01
1.413000e+00 -5.958980e+01 -2.179770e+01
2.825760e+01 -5.955410e+01 -2.106840e+01
-2.050770e+01 -3.226370e+01 -2.662300e+01
-2.139950e+01 -3.043270e+01 -2.641450e+01
-1.445650e+01 -4.287750e+01 -2.680750e+01
-1.021300e+01 -4.445030e+01 -2.851230e+01
1.914530e+01 -6.257030e+01 -2.028370e+01
3.263980e+01 -5.693030e+01 -2.192970e+01
3.727760e+01 -5.014580e+01 -2.517720e+01
-1.675000e+00 -5.765820e+01 -2.284360e+01
2.137910e+01 -6.219640e+01 -2.045560e+01
-7.275170e+00 -5.057800e+01 -2.633580e+01
-2.330140e+01 -2.570280e+01 -2.589310e+01
-1.639200e+01 -4.054800e+01 -2.684400e+01
5.240400e+01 -2.570900e+01 -2.441600e+01
4.833210e+01 -3.482720e+01 -2.590710e+01
5.217400e+01 -2.700700e+01 -2.455200e+01
4.619230e+01 -3.955870e+01 -2.572640e+01
3.658710e+01 -5.258310e+01 -2.398730e+01
5.092150e+01 -3.038730e+01 -2.504480e+01
-7.882620e+00 -4.819300e+01 -2.780640e+01
8.113670e+00 -6.212960e+01 -2.115060e+01
3.504430e+01 -5.506500e+01 -2.281580e+01
-5.994000e+00 -5.286830e+01 -2.547930e+01
3.679970e+01 -4.591650e+01 -2.861630e+01
3.947450e+01 -4.495650e+01 -2.777850e+01
3.732830e+01 -4.754770e+01 -2.744370e+01
-1.562400e+01 -4.210900e+01 -2.703500e+01
2.358460e+01 -6.196410e+01 -2.082190e+01
-1.924530e+01 -3.565500e+01 -2.729370e+01
-1.271120e+01 -4.415600e+01 -2.792440e+01
1.430270e+01 -6.360370e+01 -2.036800e+01
-2.322510e+01 -2.798370e+01 -2.645730e+01
-8.666000e+00 -4.562800e+01 -2.968900e+01
3.832900e+01 -4.501000e+01 -2.892300e+01
5.785330e+00 -6.215630e+01 -2.156900e+01
1.222970e+01 -6.387030e+01 -2.044030e+01
-1.794750e+01 -3.939750e+01 -2.723300e+01
4.364000e+01 -4.330800e+01 -2.664800e+01
5.362600e+01 -2.159400e+01 -2.477000e+01
3.036170e+01 -5.943440e+01 -2.191410e+01
1.660390e+01 -6.430830e+01 -2.006990e+01
-2.281100e+01 -2.991970e+01 -2.681300e+01
-2.128080e+01 -3.306130e+01 -2.726680e+01
-1.904040e+01 -3.731620e+01 -2.756620e+01
5.070920e+01 -3.248620e+01 -2.591220e+01
3.719150e+01 -4.581700e+01 -2.949500e+01
1.949770e+01 -6.408650e+01 -2.032180e+01
2.590170e+01 -6.193570e+01 -2.129180e+01
4.812990e+01 -3.707840e+01 -2.661010e+01
4.587780e+01 -4.166940e+01 -2.630620e+01
1.428230e+01 -6.472400e+01 -2.002950e+01
6.030000e-01 -6.037500e+01 -2.267030e+01
3.759550e+01 -5.260550e+01 -2.479700e+01
-7.181830e+00 -5.289900e+01 -2.615220e+01
1.845060e+01 -6.443260e+01 -2.014460e+01
5.367330e+01 -2.392800e+01 -2.498900e+01
-3.478000e+00 -5.742330e+01 -2.410790e+01
4.137600e+01 -4.493270e+01 -2.787700e+01
5.347770e+01 -2.599530e+01 -2.510300e+01
-2.520230e+01 -1.943970e+01 -2.624650e+01
5.438000e+01 -1.848000e+01 -2.460200e+01
1.247270e+01 -6.487230e+01 -2.017930e+01
3.343870e+01 -5.773270e+01 -2.288030e+01
-8.485330e+00 -5.062470e+01 -2.753170e+01
3.544370e+00 -6.208310e+01 -2.216050e+01
1.893000e+00 -6.140800e+01 -2.246100e+01
5.311230e+01 -2.791110e+01 -2.536300e+01
1.040330e+01 -6.439220e+01 -2.079560e+01
-2.502970e+01 -2.316720e+01 -2.656350e+01
-1.728390e+01 -4.145360e+01 -2.770410e+01
-2.521320e+01 -2.140380e+01 -2.654480e+01
4.756500e+01 -3.912300e+01 -2.676900e+01
3.643720e+01 -5.491380e+01 -2.413800e+01
-1.499170e+01 -4.392190e+01 -2.814030e+01
3.857550e+01 -5.053230e+01 -2.646630e+01
-2.484900e+01 -2.533400e+01 -2.672100e+01
2.122530e+01 -6.427770e+01 -2.060970e+01
-5.948220e+00 -5.520970e+01 -2.559430e+01
-9.363500e+00 -4.872350e+01 -2.870250e+01
-1.225890e+00 -5.986070e+01 -2.341330e+01
4.518100e+01 -4.330600e+01 -2.686000e+01
-1.023270e+01 -4.605660e+01 -3.013210e+01
-2.104280e+01 -3.515460e+01 -2.804580e+01
2.813300e+01 -6.181110e+01 -2.187980e+01
-2.410300e+01 -2.888600e+01 -2.722200e+01
5.047520e+01 -3.459320e+01 -2.666570e+01
3.906700e+01 -4.818110e+01 -2.827660e+01
3.136150e+01 -5.994650e+01 -2.264650e+01
-1.919660e+01 -3.918940e+01 -2.804640e+01
3.912830e+01 -4.618870e+01 -2.946570e+01
8.070330e+00 -6.442140e+01 -2.138410e+01
3.488280e+01 -5.723350e+01 -2.369200e+01
-2.358670e+01 -3.071620e+01 -2.752980e+01
2.979400e+01 -6.111800e+01 -2.233000e+01
4.364600e+01 -4.450800e+01 -2.783770e+01
5.307170e+01 -3.017140e+01 -2.605400e+01
-8.389670e+00 -5.294530e+01 -2.719930e+01
2.354110e+01 -6.429200e+01 -2.129670e+01
1.462230e+01 -6.659980e+01 -1.980980e+01
4.139600e+01 -4.575030e+01 -2.900870e+01
-1.039670e+01 -4.826310e+01 -2.955600e+01
5.529760e+01 -1.938600e+01 -2.546290e+01
1.654600e+01 -6.657820e+01 -1.984980e+01
-4.365000e+00 -5.832200e+01 -2.483300e+01
4.917900e+01 -3.762450e+01 -2.752550e+01
1.269700e+01 -6.663470e+01 -1.996620e+01
2.644000e+00 -6.296400e+01 -2.273800e+01
5.841870e+00 -6.437020e+01 -2.195250e+01
4.676300e+01 -4.257400e+01 -2.724700e+01
3.761800e+01 -5.493970e+01 -2.505130e+01
5.522290e+01 -2.163900e+01 -2.573970e+01
-9.685830e+00 -5.066980e+01 -2.857520e+01
-2.634800e+01 -1.788400e+01 -2.703800e+01
-2.635700e+01 -1.945370e+01 -2.709000e+01
-2.996250e+00 -5.967830e+01 -2.436230e+01
3.877320e+01 -5.265280e+01 -2.631900e+01
3.293240e+01 -5.956910e+01 -2.338810e+01
9.872500e-01 -6.228890e+01 -2.320620e+01
3.963700e+01 -5.022080e+01 -2.762520e+01
1.847050e+01 -6.656750e+01 -2.006780e+01
5.516610e+01 -2.387510e+01 -2.583510e+01
-2.090420e+01 -3.703200e+01 -2.866940e+01
-2.637050e+01 -2.141800e+01 -2.724350e+01
-2.608060e+01 -2.354440e+01 -2.744320e+01
3.993000e+01 -4.734500e+01 -2.941700e+01
5.264220e+01 -3.237080e+01 -2.671060e+01
-1.710170e+01 -4.349460e+01 -2.864640e+01
3.607250e+01 -5.687200e+01 -2.456450e+01
-2.333170e+01 -3.281510e+01 -2.823640e+01
1.028320e+01 -6.658640e+01 -2.043250e+01
-1.257140e+01 -4.609540e+01 -3.025380e+01
4.190500e+00 -6.411450e+01 -2.247750e+01
-2.585310e+01 -2.586210e+01 -2.762210e+01
5.128830e+01 -3.539500e+01 -2.724770e+01
1.962600e+01 -6.656770e+01 -2.037970e+01
4.860970e+01 -3.966930e+01 -2.784570e+01
-1.905340e+01 -4.122760e+01 -2.874200e+01
-7.533670e+00 -5.525930e+01 -2.687800e+01
2.900300e+01 -6.269200e+01 -2.259900e+01
-2.048300e+01 -3.885850e+01 -2.884680e+01
2.743600e+01 -6.349100e+01 -2.231700e+01
2.586920e+01 -6.428340e+01 -2.202400e+01
4.607510e+01 -4.421970e+01 -2.784700e+01
5.534970e+01 -2.566050e+01 -2.627020e+01
-5.943220e+00 -5.756960e+01 -2.599860e+01
1.114100e+01 -6.743000e+01 -2.020300e+01
-2.565180e+01 -2.811760e+01 -2.806000e+01
8.150380e+00 -6.662590e+01 -2.097450e+01
3.016000e+00 -6.413020e+01 -2.287600e+01
4.141970e+01 -4.655770e+01 -2.982000e+01
2.117110e+01 -6.656940e+01 -2.083280e+01
5.503280e+01 -2.785620e+01 -2.646880e+01
3.067050e+01 -6.201250e+01 -2.313860e+01
-2.288520e+01 -3.500880e+01 -2.886540e+01
3.477330e+01 -5.906670e+01 -2.426500e+01
4.072500e+01 -4.887400e+01 -2.910400e+01
4.366370e+01 -4.571870e+01 -2.916970e+01
5.077890e+01 -3.724620e+01 -2.794390e+01
-8.331330e+00 -5.528370e+01 -2.732270e+01
-1.050430e+00 -6.208960e+01 -2.426070e+01
5.468250e+01 -2.981300e+01 -2.679850e+01
-1.874900e+01 -4.294300e+01 -2.902000e+01
-1.488240e+01 -4.609180e+01 -2.997370e+01
4.836110e+01 -4.185630e+01 -2.805020e+01
-4.067600e+00 -6.004640e+01 -2.527120e+01
