6.880000e+00 -1.414100e+01 1.341900e+01
1.446140e+01 -1.032940e+01 1.488840e+01
2.151100e+01 -1.480400e+01 1.250210e+01
1.217580e+01 -1.032530e+01 1.484180e+01
5.632430e+00 -1.502160e+01 1.231690e+01
1.664700e+01 -1.042990e+01 1.439590e+01
1.977900e+01 -1.224250e+01 1.316700e+01
1.826900e+01 -1.109700e+01 1.373100e+01
7.188200e+00 -1.246640e+01 1.312040e+01
1.011300e+01 -1.043400e+01 1.407770e+01
2.281000e+01 -1.682250e+01 1.137150e+01
2.280400e+01 -1.568500e+01 1.127500e+01
2.107400e+01 -1.274290e+01 1.208670e+01
5.867200e+00 -1.277640e+01 1.201380e+01
1.750600e+01 -9.584000e+00 1.349400e+01
9.149500e+00 -9.943500e+00 1.328650e+01
4.711000e+00 -1.454000e+01 1.106800e+01
1.911720e+01 -1.025150e+01 1.283870e+01
1.636450e+01 -8.820000e+00 1.370750e+01
3.713800e+00 -1.708000e+01 1.000100e+01
7.649330e+00 -1.032740e+01 1.258600e+01
1.447000e+01 -8.047000e+00 1.391610e+01
1.066050e+01 -8.415000e+00 1.369000e+01
1.218490e+01 -8.034560e+00 1.408370e+01
2.053700e+01 -1.073400e+01 1.160250e+01
2.204400e+01 -1.226600e+01 1.088550e+01
6.179000e+00 -1.109800e+01 1.150800e+01
2.356030e+01 -1.493630e+01 9.934290e+00
3.692600e+00 -1.508980e+01 9.937800e+00
4.905750e+00 -1.243970e+01 1.059880e+01
1.685510e+01 -7.851430e+00 1.312170e+01
9.687570e+00 -7.922430e+00 1.301700e+01
2.299700e+01 -1.284650e+01 9.739500e+00
1.881590e+01 -8.191000e+00 1.191310e+01
2.150990e+01 -1.025470e+01 1.036000e+01
3.982000e+00 -1.264270e+01 9.603000e+00
1.409250e+01 -6.520000e+00 1.359600e+01
1.257200e+01 -6.510000e+00 1.363900e+01
7.862710e+00 -8.140430e+00 1.191010e+01
2.433200e+01 -1.418300e+01 8.755000e+00
5.360750e+00 -1.024510e+01 1.024200e+01
2.482000e+00 -1.652400e+01 8.046330e+00
2.511300e+01 -1.685450e+01 7.725000e+00
2.714670e+00 -1.447170e+01 8.197000e+00
1.978900e+01 -7.704000e+00 1.108200e+01
1.458640e+01 -5.547140e+00 1.299230e+01
1.828400e+01 -6.573000e+00 1.158700e+01
2.511530e+01 -1.495130e+01 7.637330e+00
2.404940e+01 -1.251140e+01 8.128200e+00
1.208630e+01 -5.529710e+00 1.308360e+01
6.908000e+00 -7.651500e+00 1.102450e+01
1.675610e+01 -5.790890e+00 1.231600e+01
2.084940e+01 -8.238200e+00 9.832200e+00
9.911000e+00 -5.742780e+00 1.229830e+01
1.706000e+00 -1.656070e+01 6.997000e+00
2.813830e+00 -1.269380e+01 7.651000e+00
8.395500e+00 -6.120000e+00 1.155550e+01
5.811170e+00 -8.044500e+00 9.934500e+00
2.337840e+01 -1.048700e+01 7.787290e+00
2.513700e+01 -1.343200e+01 6.977000e+00
3.632000e+00 -1.053800e+01 7.964400e+00
2.629550e+01 -1.687500e+01 6.017500e+00
1.914330e+01 -5.720880e+00 1.039010e+01
2.187100e+01 -7.898500e+00 8.441250e+00
2.055400e+01 -6.572000e+00 9.233000e+00
7.443860e+00 -5.633860e+00 1.052660e+01
2.630050e+01 -1.496850e+01 5.933670e+00
1.626170e+01 -4.012330e+00 1.165670e+01
4.670330e+00 -8.070330e+00 8.346670e+00
1.358000e+00 -1.444460e+01 5.850000e+00
9.150000e-01 -1.662200e+01 5.136670e+00
1.449170e+01 -3.483670e+00 1.202390e+01
1.220780e+01 -3.465560e+00 1.218590e+01
2.283150e+01 -8.476500e+00 7.121000e+00
6.166500e+00 -6.132500e+00 9.436500e+00
1.030300e+01 -3.842000e+00 1.163250e+01
2.581200e+01 -1.267980e+01 5.593330e+00
2.438500e+01 -1.000800e+01 6.101000e+00
3.898330e+00 -8.096000e+00 7.282000e+00
1.631000e+00 -1.237950e+01 5.311000e+00
2.571750e+00 -1.024200e+01 6.042750e+00
1.703220e+01 -3.266000e+00 1.083700e+01
2.118550e+01 -5.813000e+00 7.905500e+00
9.627800e+00 -3.157800e+00 1.088700e+01
2.518100e+01 -1.077400e+01 5.152500e+00
1.860620e+01 -3.690800e+00 9.600600e+00
5.268170e+00 -5.767330e+00 8.096330e+00
7.876570e+00 -3.568290e+00 9.851570e+00
1.243330e-01 -1.667800e+01 3.522670e+00
1.412200e+01 -1.961500e+00 1.138800e+01
2.374030e+01 -8.108670e+00 5.513170e+00
1.221800e+01 -1.947330e+00 1.145230e+01
1.605000e+00 -1.124500e+01 4.503000e+00
2.923750e+00 -8.333000e+00 5.572500e+00
2.783480e+01 -1.638000e+01 3.260600e+00
2.812500e-01 -1.417880e+01 3.338500e+00
2.676500e+01 -1.231350e+01 3.702500e+00
1.961380e+01 -3.344000e+00 8.038250e+00
2.207600e+01 -5.435000e+00 6.179500e+00
2.055800e+01 -3.912500e+00 7.280000e+00
6.890000e+00 -3.078500e+00 8.772500e+00
2.309430e+01 -6.332000e+00 5.293330e+00
1.461660e+01 -1.003430e+00 1.078830e+01
2.792450e+01 -1.462300e+01 3.083750e+00
6.380000e-01 -1.225170e+01 3.180000e+00
1.656990e+01 -1.352290e+00 9.913140e+00
4.610000e+00 -5.016000e+00 6.545000e+00
2.599480e+01 -1.040380e+01 3.386600e+00
1.222550e+01 -8.215000e-01 1.088780e+01
5.821600e+00 -3.618600e+00 7.746400e+00
3.659000e+00 -6.007000e+00 5.634750e+00
9.940890e+00 -1.192220e+00 1.012840e+01
2.755550e+01 -1.309000e+01 2.922500e+00
1.320000e+00 -1.024430e+01 3.366330e+00
2.439000e+01 -7.357000e+00 4.279000e+00
8.410500e+00 -1.562000e+00 9.337500e+00
-6.713330e-01 -1.673930e+01 1.778000e+00
2.315000e+00 -7.791000e+00 3.786500e+00
2.131820e+01 -3.527600e+00 5.810600e+00
2.521350e+01 -8.501000e+00 2.853000e+00
1.753500e+01 -8.750000e-01 8.761000e+00
1.858900e+01 -1.405800e+00 7.952000e+00
-7.126670e-01 -1.444370e+01 1.165670e+00
3.250000e-02 -1.171250e+01 1.767000e+00
2.378180e+01 -5.673600e+00 3.688000e+00
2.888730e+01 -1.656130e+01 1.059000e+00
7.415140e+00 -1.072860e+00 8.183710e+00
1.602300e+01 2.680000e-01 9.276000e+00
4.771250e+00 -3.285250e+00 5.801500e+00
7.820000e-01 -9.759000e+00 2.024000e+00
1.537330e+00 -8.198000e+00 2.578000e+00
6.100000e+00 -1.934000e+00 7.043000e+00
2.818470e+01 -1.253170e+01 1.574000e+00
3.819000e+00 -4.267000e+00 4.774000e+00
2.672750e+00 -5.852250e+00 3.526750e+00
2.682750e+01 -1.003000e+01 1.349000e+00
1.441810e+01 9.422500e-01 9.705250e+00
1.223230e+01 1.053890e+00 9.847670e+00
1.959980e+01 -1.057000e+00 6.106750e+00
1.050750e+01 8.750000e-01 9.360500e+00
2.916850e+01 -1.464750e+01 6.690000e-01
-7.480000e-01 -1.292400e+01 3.540000e-01
2.209050e+01 -3.136500e+00 3.891000e+00
2.762700e+01 -1.080150e+01 8.560000e-01
-1.468330e+00 -1.679970e+01 -3.563330e-01
2.055050e+01 -1.618000e+00 5.064500e+00
2.577530e+01 -8.124670e+00 9.736670e-01
1.827900e+01 2.620000e-01 7.147000e+00
7.565000e-01 -8.609000e+00 1.225000e+00
-4.000000e-03 -1.057700e+01 3.350000e-01
1.686210e+01 1.115370e+00 8.091630e+00
2.305800e+01 -3.710000e+00 2.979000e+00
9.465200e+00 1.222600e+00 8.611400e+00
1.525800e+01 1.784000e+00 8.896000e+00
5.626400e+00 -1.026200e+00 5.717600e+00
3.539670e+00 -3.504000e+00 3.328330e+00
2.443300e+01 -5.053000e+00 1.771000e+00
-1.495000e+00 -1.448030e+01 -9.720000e-01
7.840000e+00 9.762860e-01 7.523000e+00
2.921500e+01 -1.351500e+01 -5.360000e-01
2.524600e+01 -6.597000e+00 4.320000e-01
2.261000e+00 -5.088000e+00 1.782000e+00
1.374600e+01 2.550000e+00 9.205000e+00
1.222230e+01 2.561000e+00 9.259330e+00
1.495000e+00 -6.273000e+00 1.038500e+00
-7.605000e-01 -1.176400e+01 -1.073500e+00
2.131720e+01 -1.225400e+00 3.425000e+00
1.890180e+01 1.027000e+00 5.804670e+00
-1.850000e-02 -9.417500e+00 -7.555000e-01
2.806100e+01 -1.044150e+01 -1.021000e+00
2.647100e+01 -8.135500e+00 -9.480000e-01
4.543330e+00 -1.178330e+00 3.713330e+00
7.240000e-01 -7.469000e+00 -4.730000e-01
2.924000e+01 -1.276900e+01 -1.560000e+00
2.392330e+01 -3.502670e+00 1.019000e+00
2.999900e+01 -1.662000e+01 -2.212000e+00
-2.218670e+00 -1.678000e+01 -2.519330e+00
6.846000e+00 1.468500e+00 6.362500e+00
3.010000e+00 -3.127000e+00 1.670000e+00
3.000150e+01 -1.662300e+01 -2.332000e+00
3.772000e+00 -1.943000e+00 2.571000e+00
1.458410e+01 3.392000e+00 8.384380e+00
6.077000e+00 1.094670e+00 5.555670e+00
1.630120e+01 3.141400e+00 7.448400e+00
2.243000e+00 -3.915000e+00 8.690000e-01
1.220800e+01 3.688330e+00 8.641000e+00
2.527700e+01 -5.830000e+00 -1.116000e+00
9.910000e+00 3.329560e+00 8.028780e+00
8.379000e+00 2.970000e+00 7.192500e+00
-1.506000e+00 -1.253950e+01 -3.083500e+00
9.700000e-01 -5.904670e+00 -9.873330e-01
1.977700e+01 1.424500e+00 3.640500e+00
-2.246330e+00 -1.446430e+01 -3.262330e+00
2.209000e+01 -8.230000e-01 1.248000e+00
2.689700e+01 -8.158000e+00 -2.732000e+00
1.851930e+01 2.799330e+00 5.147330e+00
1.731780e+01 3.484500e+00 6.219750e+00
2.053800e+01 1.055000e+00 2.772670e+00
2.288100e+01 -1.571000e+00 3.925000e-01
3.003500e+01 -1.472800e+01 -3.494500e+00
5.111500e+00 9.117500e-01 3.555500e+00
-7.665000e-01 -1.021050e+01 -3.263000e+00
2.849200e+01 -1.048500e+01 -3.300000e+00
2.448400e+01 -3.500000e+00 -1.141000e+00
3.380000e+00 -1.183500e+00 1.074000e+00
1.850000e+00 -3.537000e+00 -5.355000e-01
-3.100000e-02 -7.881500e+00 -2.803000e+00
7.383860e+00 3.461860e+00 5.893290e+00
6.070000e+00 2.613000e+00 4.810000e+00
2.928700e+01 -1.204900e+01 -4.009000e+00
2.584170e+01 -5.849330e+00 -3.313330e+00
2.149670e+01 8.845000e-01 1.154500e+00
1.008080e+01 5.013250e+00 7.281000e+00
1.436430e+01 5.342430e+00 7.368000e+00
2.771800e+01 -8.953000e+00 -4.370000e+00
-1.512000e+00 -1.137500e+01 -4.646000e+00
1.218820e+01 5.564220e+00 7.552560e+00
-2.962670e+00 -1.674400e+01 -5.309000e+00
1.916640e+01 3.471400e+00 3.394800e+00
4.533000e+00 1.489000e+00 1.884000e+00
7.110000e-01 -5.162000e+00 -2.988000e+00
2.450300e+01 -2.730000e+00 -2.326000e+00
2.348400e+01 -1.000250e+00 -1.264750e+00
2.692500e+01 -7.418000e+00 -4.836000e+00
1.663970e+01 5.467120e+00 5.728250e+00
3.765000e+00 7.305000e-01 5.855000e-01
-1.148500e+00 -9.833500e+00 -5.196500e+00
5.684000e+00 3.376000e+00 3.454750e+00
2.994000e+00 -4.380000e-01 -5.860000e-01
-4.650000e-02 -6.348500e+00 -4.041000e+00
2.224000e+00 -1.612500e+00 -1.463000e+00
-2.982000e+00 -1.520200e+01 -6.085000e+00
1.209670e+00 -3.606670e+00 -3.078670e+00
-2.255500e+00 -1.252450e+01 -5.974000e+00
1.484250e+01 6.313000e+00 6.469000e+00
9.725200e+00 6.029000e+00 6.361000e+00
-7.900000e-01 -8.296000e+00 -5.272000e+00
2.531730e+01 -3.517000e+00 -3.878670e+00
7.967830e+00 5.595670e+00 5.400170e+00
3.010400e+01 -1.364600e+01 -6.613000e+00
1.977300e+01 4.092000e+00 2.044000e+00
2.208400e+01 1.468000e+00 -8.295000e-01
2.072180e+01 3.164500e+00 7.917500e-01
2.288100e+01 7.065000e-01 -1.695000e+00
2.654050e+01 -5.875000e+00 -5.780000e+00
1.854680e+01 5.431800e+00 3.221800e+00
3.252670e+00 1.076670e+00 -1.089330e+00
1.747900e+01 6.325000e+00 4.257000e+00
6.828330e+00 5.614670e+00 3.992000e+00
2.855700e+01 -9.781000e+00 -7.243000e+00
2.451300e+01 -1.198000e+00 -3.769670e+00
-6.000000e-02 -5.217000e+00 -5.339000e+00
1.708670e+00 -1.290000e+00 -3.196000e+00
4.732250e+00 3.584500e+00 9.327500e-01
3.089630e+01 -1.676430e+01 -7.879330e+00
-2.989000e+00 -1.403950e+01 -7.767000e+00
2.776300e+01 -8.227000e+00 -7.330000e+00
1.621830e+01 7.324670e+00 5.024670e+00
-3.707670e+00 -1.671300e+01 -7.922670e+00
6.900000e-01 -3.272500e+00 -4.779000e+00
1.217910e+01 7.826440e+00 5.917890e+00
-2.267000e+00 -1.137300e+01 -7.666000e+00
6.072000e+00 5.629330e+00 3.045330e+00
1.446140e+01 7.825670e+00 5.603000e+00
8.338000e+00 7.089000e+00 4.948000e+00
2.613270e+01 -3.532000e+00 -5.768000e+00
2.936000e+01 -1.135800e+01 -8.193000e+00
-1.536000e+00 -9.473000e+00 -7.691000e+00
9.968500e+00 7.739120e+00 5.328380e+00
2.157270e+01 3.368000e+00 -1.270670e+00
2.342630e+01 1.084330e+00 -3.327000e+00
-8.095000e-01 -7.180500e+00 -7.490500e+00
1.958500e+01 5.805250e+00 9.895000e-01
-7.600000e-02 -4.087000e+00 -6.116500e+00
2.993000e+00 1.794000e+00 -2.472000e+00
5.320000e+00 5.648330e+00 1.582330e+00
2.218000e+00 6.060000e-01 -3.632000e+00
2.532430e+01 -1.205000e+00 -5.421000e+00
3.771000e+00 3.363330e+00 -1.292330e+00
1.821750e+01 7.468000e+00 2.674500e+00
1.696770e+01 8.090170e+00 3.649500e+00
2.697000e+01 -5.511500e+00 -8.127500e+00
9.111000e+00 8.594000e+00 4.284000e+00
-2.278000e+00 -1.061700e+01 -9.374000e+00
7.493880e+00 7.953370e+00 3.424130e+00
9.276670e-01 -1.388000e+00 -5.777000e+00
6.081000e+00 7.136000e+00 2.400000e+00
-3.740000e+00 -1.440470e+01 -9.591670e+00
2.211400e+01 3.752000e+00 -2.852500e+00
1.219100e+01 9.345000e+00 4.848330e+00
1.371800e+01 9.346000e+00 4.681000e+00
2.057000e+01 5.643330e+00 -1.178000e+00
2.289900e+01 2.990000e+00 -3.928500e+00
2.779700e+01 -7.488000e+00 -9.762000e+00
-3.205750e+00 -1.232230e+01 -1.007120e+01
4.565670e+00 5.653330e+00 -6.346670e-01
1.880400e+01 8.053000e+00 1.656250e+00
2.431350e+01 1.273500e+00 -5.476250e+00
2.695370e+01 -3.557000e+00 -8.184330e+00
1.694330e+00 9.230000e-01 -5.361670e+00
2.991000e+00 3.285000e+00 -3.513670e+00
-4.800000e-01 -3.382500e+00 -7.886500e+00
3.018300e+01 -1.295900e+01 -1.109900e+01
-8.530000e-01 -4.550000e+00 -8.650000e+00
2.633880e+01 -1.412500e+00 -7.578500e+00
2.532800e+01 3.160000e-01 -6.738000e+00
1.457850e+01 1.020700e+01 3.738870e+00
6.600000e-01 -6.730000e-01 -7.015000e+00
-1.576670e+00 -7.616670e+00 -1.031470e+01
5.648600e+00 8.057800e+00 1.173800e+00
-4.486000e+00 -1.673400e+01 -1.125900e+01
1.648630e+01 9.866670e+00 2.842830e+00
9.904670e+00 1.011590e+01 3.619670e+00
3.096000e+01 -1.529300e+01 -1.179800e+01
1.221000e+01 1.049220e+01 3.811170e+00
2.156650e+01 5.466000e+00 -3.451000e+00
2.344570e+01 3.373000e+00 -5.231000e+00
-4.504000e+00 -1.597700e+01 -1.146300e+01
2.861000e+01 -9.052000e+00 -1.173100e+01
2.779100e+01 -5.925000e+00 -1.070570e+01
1.979830e+01 7.907000e+00 -9.930000e-01
8.186500e+00 9.938250e+00 2.759500e+00
3.781000e+00 5.593000e+00 -2.838000e+00
-1.173330e-01 -1.487670e+00 -8.125000e+00
-1.303800e+00 -5.501600e+00 -1.014820e+01
2.201330e+00 3.204330e+00 -5.692670e+00
1.843770e+01 9.956250e+00 7.195000e-01
4.590670e+00 7.911670e+00 -1.083000e+00
1.725270e+01 1.064170e+01 1.538330e+00
-4.543000e+00 -1.486900e+01 -1.253750e+01
2.573430e+01 1.075250e+00 -8.094750e+00
2.807680e+01 -3.731000e+00 -1.047840e+01
2.940350e+01 -1.023150e+01 -1.293900e+01
-2.774200e+00 -9.788600e+00 -1.229360e+01
2.860000e+01 -7.876000e+00 -1.249400e+01
7.185200e+00 1.030360e+01 1.577000e+00
2.694550e+01 -8.525000e-01 -9.319500e+00
8.352500e-01 1.008250e+00 -7.934500e+00
-3.816000e+00 -1.182450e+01 -1.250500e+01
2.060450e+01 7.550500e+00 -3.329500e+00
6.131500e+00 9.796000e+00 7.495000e-01
2.857330e+01 -5.917330e+00 -1.177470e+01
2.295200e+01 4.902000e+00 -5.896000e+00
1.432500e+01 1.183050e+01 2.810250e+00
-1.267500e+00 -3.094250e+00 -1.031300e+01
1.224020e+01 1.202030e+01 2.947830e+00
1.045370e+01 1.189830e+01 2.624330e+00
2.986330e+00 5.513670e+00 -5.213670e+00
2.433650e+01 3.565000e+00 -7.555000e+00
2.218100e+01 6.045000e+00 -5.846500e+00
2.774130e+01 -1.240670e+00 -1.034970e+01
-4.574000e+00 -1.375900e+01 -1.358700e+01
2.937500e+01 -7.877000e+00 -1.326950e+01
-2.744830e+00 -7.689830e+00 -1.274720e+01
2.533700e+01 2.608000e+00 -8.556000e+00
3.782500e+00 7.462500e+00 -3.935000e+00
2.853800e+01 -2.783000e+00 -1.125800e+01
1.903600e+01 1.055250e+01 -1.039000e+00
2.934970e+01 -5.917000e+00 -1.264930e+01
1.405670e+00 3.113670e+00 -7.943000e+00
3.098700e+01 -1.415400e+01 -1.467600e+01
-7.142500e-01 -6.192500e-01 -1.030350e+01
2.100800e+01 7.940000e+00 -5.030500e+00
3.067060e+01 -1.204500e+01 -1.461100e+01
5.248000e+00 1.017480e+01 -1.179670e+00
1.657440e+01 1.231640e+01 1.013430e+00
3.039560e+01 -9.731430e+00 -1.417500e+01
1.469020e+01 1.287140e+01 1.812400e+00
2.336700e+01 5.285000e+00 -7.657500e+00
9.717330e+00 1.267370e+01 1.647500e+00
-3.872670e+00 -9.984330e+00 -1.390600e+01
-2.696200e+00 -5.572000e+00 -1.277460e+01
2.187500e+00 5.057500e+00 -7.274500e+00
1.227130e+01 1.317430e+01 2.015670e+00
2.674320e+01 1.260250e+00 -1.018600e+01
7.941670e+00 1.218330e+01 7.986670e-01
-1.657000e+00 -2.373000e+00 -1.162400e+01
1.982200e+01 9.821500e+00 -3.704500e+00
3.053620e+01 -7.880500e+00 -1.417080e+01
2.852600e+01 -1.225000e+00 -1.168600e+01
-4.609000e+00 -1.227730e+01 -1.479700e+01
2.773400e+01 3.060000e-01 -1.117500e+01
2.963340e+01 -3.408000e+00 -1.284800e+01
3.771000e+00 8.578000e+00 -4.966000e+00
-2.406000e+00 -3.530500e+00 -1.284900e+01
-1.490000e-01 1.477000e+00 -1.063170e+01
1.848370e+01 1.226070e+01 -1.165750e+00
1.755500e+01 1.282350e+01 -3.085000e-01
3.051350e+01 -5.921170e+00 -1.392720e+01
6.146670e-01 3.031670e+00 -9.990000e+00
-3.925670e+00 -7.730670e+00 -1.443630e+01
2.601230e+01 3.374000e+00 -1.035780e+01
3.175100e+01 -1.142100e+01 -1.567200e+01
5.893670e+00 1.193600e+01 -1.684330e+00
4.591000e+00 1.090700e+01 -2.881000e+00
1.605300e+01 1.397500e+01 3.900000e-01
7.198330e+00 1.295530e+01 -6.776670e-01
-1.656000e+00 -8.576670e-01 -1.253030e+01
2.061700e+01 9.464000e+00 -6.294000e+00
3.191800e+01 -9.650000e+00 -1.550720e+01
-4.659000e+00 -1.041150e+01 -1.562650e+01
2.930500e+01 -1.218670e+00 -1.297100e+01
2.944000e+00 7.338500e+00 -7.903500e+00
2.167830e+01 7.955670e+00 -8.362330e+00
1.226620e+01 1.474500e+01 1.044110e+00
-3.750250e+00 -5.256500e+00 -1.436920e+01
1.023830e+01 1.449180e+01 7.068330e-01
1.444780e+01 1.465320e+01 6.646250e-01
8.476000e+00 1.398600e+01 3.700000e-02
2.403530e+01 5.925000e+00 -9.826830e+00
3.068550e+01 -3.767250e+00 -1.406180e+01
1.982800e+01 1.097400e+01 -5.252000e+00
1.646000e+00 5.357670e+00 -9.744670e+00
3.748000e+00 9.311000e+00 -6.216000e+00
3.263480e+01 -1.230810e+01 -1.641890e+01
3.208600e+01 -7.881500e+00 -1.537100e+01
3.178800e+01 -1.652950e+01 -1.772800e+01
2.820060e+01 1.244400e+00 -1.243020e+01
-5.413000e+00 -1.694030e+01 -1.722200e+01
1.906100e+01 1.285200e+01 -2.967000e+00
3.296680e+01 -1.000500e+01 -1.594820e+01
-4.717670e+00 -7.759330e+00 -1.560900e+01
3.255470e+01 -1.456670e+01 -1.734670e+01
-1.204600e+00 1.288800e+00 -1.253000e+01
2.534950e+01 5.291500e+00 -1.087600e+01
3.206420e+01 -5.926500e+00 -1.516880e+01
-3.399290e+00 -3.056140e+00 -1.438910e+01
-5.414330e+00 -1.465130e+01 -1.743830e+01
1.688440e+01 1.486210e+01 -8.960000e-01
5.100670e+00 1.267200e+01 -3.458670e+00
2.693700e+01 3.771500e+00 -1.213700e+01
9.476330e+00 1.528270e+01 -1.270000e-01
3.324600e+01 -7.882500e+00 -1.583200e+01
1.528700e+01 1.554000e+01 -2.320000e-01
-4.725670e+00 -5.460330e+00 -1.544600e+01
3.047020e+01 -1.229170e+00 -1.413300e+01
3.278530e+01 -1.703810e+01 -1.833840e+01
-3.866670e-01 3.243330e+00 -1.230630e+01
7.680430e+00 1.475460e+01 -1.281000e+00
-5.736800e+00 -1.220300e+01 -1.743300e+01
-5.692860e+00 -9.955290e+00 -1.688170e+01
1.829070e+01 1.477200e+01 -1.915000e+00
2.220050e+01 8.348500e+00 -1.029450e+01
3.485480e+01 -1.221980e+01 -1.683770e+01
3.204280e+01 -3.583670e+00 -1.525220e+01
2.317750e+01 7.785000e+00 -1.074200e+01
2.061650e+01 1.061900e+01 -8.299000e+00
-3.086620e+00 -9.721250e-01 -1.460290e+01
2.155000e+00 6.881000e+00 -1.094300e+01
1.188150e+01 1.632000e+01 3.700000e-02
2.772470e+01 3.399330e+00 -1.305100e+01
3.476070e+01 -1.434710e+01 -1.759840e+01
3.322800e+01 -5.928670e+00 -1.602970e+01
-4.722000e+00 -3.931000e+00 -1.567700e+01
3.482080e+01 -9.853890e+00 -1.654110e+01
-6.206000e+00 -1.313300e+01 -1.810200e+01
1.982570e+01 1.250630e+01 -6.407670e+00
-5.909000e+00 -7.786830e+00 -1.688130e+01
-6.223330e+00 -1.468170e+01 -1.854500e+01
8.375000e-01 5.512750e+00 -1.218200e+01
-1.655000e+00 2.188000e+00 -1.383600e+01
1.904930e+01 1.478330e+01 -3.344000e+00
2.613580e+01 5.690800e+00 -1.240860e+01
-1.140000e-01 4.531000e+00 -1.283500e+01
2.906000e+00 8.428000e+00 -1.060100e+01
3.526250e+01 -1.535600e+01 -1.806500e+01
3.488100e+01 -1.692190e+01 -1.855140e+01
5.806200e+00 1.457040e+01 -3.400200e+00
3.007110e+01 1.091110e+00 -1.453570e+01
-6.262670e+00 -1.700930e+01 -1.933170e+01
3.479470e+01 -7.881500e+00 -1.662680e+01
3.183250e+01 -1.439000e+00 -1.539350e+01
6.888000e+00 1.551400e+01 -2.414000e+00
2.850430e+01 3.412330e+00 -1.385100e+01
3.320730e+01 -3.597670e+00 -1.593030e+01
1.451200e+01 1.709830e+01 -7.080000e-01
2.160070e+01 1.006650e+01 -1.039750e+01
-5.900500e+00 -5.475000e+00 -1.679920e+01
1.235260e+01 1.732030e+01 -4.438570e-01
-2.721000e+00 1.261000e+00 -1.500640e+01
9.949670e+00 1.709320e+01 -8.753330e-01
-7.062500e+00 -9.705500e+00 -1.795500e+01
1.654660e+01 1.698870e+01 -1.607430e+00
3.680000e+00 1.038750e+01 -9.851000e+00
3.667730e+01 -1.406800e+01 -1.783330e+01
2.422360e+01 8.155600e+00 -1.217880e+01
3.477690e+01 -5.934780e+00 -1.673790e+01
-3.948000e+00 -1.070000e-01 -1.577800e+01
-7.798560e+00 -1.237390e+01 -1.870060e+01
-7.103330e+00 -7.804000e+00 -1.779270e+01
-7.815560e+00 -1.469020e+01 -1.916710e+01
3.718260e+01 -1.225530e+01 -1.747100e+01
8.100400e+00 1.692420e+01 -1.926600e+00
3.163100e+01 3.000000e-01 -1.565600e+01
-1.439750e+00 3.726750e+00 -1.465350e+01
1.923670e+00 7.645670e+00 -1.276800e+01
2.532700e+01 7.625000e+00 -1.300550e+01
2.692000e+01 6.087500e+00 -1.375400e+01
-5.582750e+00 -3.067120e+00 -1.693420e+01
3.287980e+01 -1.110800e+00 -1.604040e+01
2.959620e+01 3.257400e+00 -1.492080e+01
3.714480e+01 -9.877330e+00 -1.723820e+01
-7.760620e+00 -1.692420e+01 -1.986490e+01
3.719520e+01 -1.691210e+01 -1.869580e+01
4.726250e+00 1.488620e+01 -5.211500e+00
3.745420e+01 -1.485070e+01 -1.827500e+01
-8.060000e+00 -1.019170e+01 -1.849570e+01
1.750650e+01 1.749150e+01 -2.393500e+00
2.218100e+01 1.065900e+01 -1.160900e+01
2.060300e+01 1.254070e+01 -9.848330e+00
-7.078000e+00 -5.479670e+00 -1.775200e+01
-5.446000e-01 5.442400e+00 -1.448280e+01
-2.403000e+00 2.941000e+00 -1.556800e+01
3.476100e+01 -3.615560e+00 -1.687500e+01
1.864630e+01 1.710800e+01 -3.474000e+00
2.802380e+01 5.558400e+00 -1.452840e+01
3.711580e+01 -7.892830e+00 -1.733680e+01
1.981100e+01 1.482070e+01 -7.330670e+00
7.048500e+00 1.725050e+01 -2.998500e+00
-3.751500e+00 1.615000e+00 -1.623070e+01
-8.268500e+00 -7.795170e+00 -1.849380e+01
2.327180e+01 1.014660e+01 -1.257160e+01
1.598700e+01 1.865300e+01 -1.862000e+00
-5.380000e+00 -9.538750e-01 -1.720020e+01
3.873300e+01 -1.188900e+01 -1.787150e+01
2.935000e+00 9.976330e+00 -1.258600e+01
3.681000e+00 1.153800e+01 -1.115700e+01
-7.047000e+00 -3.926000e+00 -1.795900e+01
6.073330e+00 1.703300e+01 -4.084330e+00
3.250300e+01 1.152380e+00 -1.642960e+01
3.869800e+01 -9.896330e+00 -1.774730e+01
1.219960e+01 1.942400e+01 -1.177780e+00
9.846000e-01 7.785400e+00 -1.442620e+01
8.381000e+00 1.862700e+01 -2.249000e+00
3.710140e+01 -5.951220e+00 -1.757190e+01
-1.002050e+01 -1.644670e+01 -2.003730e+01
3.064850e+01 3.593500e+00 -1.605530e+01
-1.020200e+01 -1.470100e+01 -1.974080e+01
2.624250e+01 8.022500e+00 -1.448120e+01
1.446760e+01 1.943060e+01 -1.587890e+00
-8.240000e+00 -5.467170e+00 -1.848570e+01
3.951870e+01 -1.460500e+01 -1.859340e+01
3.950990e+01 -1.690340e+01 -1.889920e+01
-1.018920e+01 -1.237870e+01 -1.948330e+01
3.474820e+01 -1.298000e+00 -1.710470e+01
-6.900000e-02 6.839000e+00 -1.517600e+01
9.908440e+00 1.940380e+01 -1.634330e+00
5.090000e+00 1.681480e+01 -5.249000e+00
3.973590e+01 -1.240210e+01 -1.822840e+01
3.866550e+01 -7.905000e+00 -1.776400e+01
-1.018930e+01 -1.006400e+01 -1.926410e+01
-4.894750e+00 1.247500e+00 -1.742950e+01
-3.146570e+00 3.721290e+00 -1.680910e+01
3.670270e+01 -3.642170e+00 -1.766770e+01
2.849300e+01 6.487000e+00 -1.578200e+01
2.769900e+01 7.254000e+00 -1.548900e+01
1.682150e+01 1.953000e+01 -2.767380e+00
3.687000e+00 1.269750e+01 -1.160800e+01
2.177630e+01 1.258100e+01 -1.244880e+01
3.986550e+01 -9.915330e+00 -1.814300e+01
3.865500e+01 -6.731000e+00 -1.795500e+01
-1.581500e+00 5.647000e+00 -1.657400e+01
-6.239000e+00 -7.400000e-02 -1.808500e+01
-7.897370e+00 -3.037870e+00 -1.869240e+01
2.295100e+01 1.183500e+01 -1.339800e+01
2.531500e+01 9.565000e+00 -1.495800e+01
1.979370e+01 1.713600e+01 -7.397330e+00
-1.178900e+01 -1.625700e+01 -2.023800e+01
7.496620e+00 1.946560e+01 -3.108000e+00
-1.019400e+01 -7.757670e+00 -1.944460e+01
1.854960e+01 1.928220e+01 -3.992000e+00
6.048000e+00 1.857000e+01 -4.493000e+00
3.657000e+00 1.540500e+01 -8.876000e+00
1.907600e+00 9.812400e+00 -1.484040e+01
2.432800e+01 1.051870e+01 -1.460530e+01
4.479000e+00 1.737150e+01 -6.359500e+00
3.240340e+01 3.375220e+00 -1.715530e+01
-1.218730e+01 -1.470570e+01 -2.012850e+01
3.464660e+01 9.227500e-01 -1.760000e+01
-4.693000e+00 2.975000e+00 -1.768900e+01
3.672000e+00 1.385500e+01 -1.137500e+01
3.006420e+01 5.718560e+00 -1.678330e+01
3.650070e+01 -1.522000e+00 -1.787780e+01
3.991280e+01 -7.700000e+00 -1.830120e+01
3.787000e+01 -3.660670e+00 -1.817100e+01
-1.266580e+01 -1.712990e+01 -2.045920e+01
-1.218550e+01 -1.237930e+01 -2.009400e+01
4.182500e+01 -1.689830e+01 -1.918210e+01
4.183680e+01 -1.460310e+01 -1.899240e+01
2.689900e+01 8.801000e+00 -1.610300e+01
-2.920250e+00 5.261250e+00 -1.746570e+01
3.655000e+00 1.462600e+01 -1.102100e+01
3.943460e+01 -5.768570e+00 -1.840470e+01
-5.921800e+00 1.614400e+00 -1.849700e+01
1.404830e+01 2.137300e+01 -1.959250e+00
-1.016790e+01 -5.431890e+00 -1.963180e+01
1.204430e+01 2.151960e+01 -1.692570e+00
4.183910e+01 -1.229740e+01 -1.878040e+01
2.090120e+01 1.472860e+01 -1.212480e+01
-7.776560e+00 -8.144440e-01 -1.905390e+01
-1.215130e+01 -1.004120e+01 -1.997470e+01
3.396100e+01 2.572000e+00 -1.780100e+01
3.657670e+00 1.695600e+01 -8.222000e+00
1.518450e+01 2.137200e+01 -2.398000e+00
1.012820e+01 2.144850e+01 -1.943670e+00
-7.981430e-01 7.593710e+00 -1.701560e+01
-1.335370e+01 -1.470100e+01 -2.036970e+01
2.817260e+01 8.180400e+00 -1.679660e+01
5.553600e+00 1.948000e+01 -5.219200e+00
4.461000e+00 1.852600e+01 -6.504000e+00
2.320930e+01 1.261330e+01 -1.451030e+01
3.755340e+01 -1.193800e+00 -1.834480e+01
1.670350e+01 2.137450e+01 -3.192670e+00
1.958000e+01 1.964150e+01 -6.028750e+00
4.181720e+01 -9.954110e+00 -1.888110e+01
-1.199470e+01 -8.230330e+00 -2.011570e+01
-1.335330e+01 -1.237330e+01 -2.036600e+01
3.189070e+01 5.191000e+00 -1.784370e+01
-9.741670e+00 -3.105830e+00 -1.976800e+01
3.552600e+01 1.780000e+00 -1.830100e+01
2.595340e+01 1.018600e+01 -1.661280e+01
3.943070e+01 -3.697110e+00 -1.871380e+01
2.954200e+01 7.515670e+00 -1.751370e+01
2.986670e+00 1.231000e+01 -1.518330e+01
2.235000e+00 1.152500e+01 -1.574500e+01
9.180000e-01 1.014730e+01 -1.668280e+01
-5.591400e+00 3.455800e+00 -1.897080e+01
-1.331730e+01 -1.003830e+01 -2.035800e+01
9.351330e+00 2.219830e+01 -2.362330e+00
1.822600e+01 2.138100e+01 -4.190500e+00
7.558780e+00 2.166140e+01 -3.267330e+00
-3.603670e+00 5.781330e+00 -1.854300e+01
4.179420e+01 -7.611000e+00 -1.902930e+01
-7.763000e+00 1.116000e+00 -1.955030e+01
-1.488810e+01 -1.702520e+01 -2.091830e+01
-1.275700e+01 -7.447670e+00 -2.044400e+01
-9.323330e+00 -7.870000e-01 -1.990570e+01
3.484620e+01 3.431870e+00 -1.857390e+01
-1.700000e-02 9.547000e+00 -1.759000e+01
4.414140e+01 -1.689370e+01 -1.962400e+01
2.189030e+01 1.491230e+01 -1.406900e+01
3.709090e+01 9.818890e-01 -1.880770e+01
-1.489490e+01 -1.469600e+01 -2.085790e+01
4.415500e+01 -1.459900e+01 -1.944280e+01
1.362800e+01 2.331600e+01 -2.099330e+00
1.937030e+01 2.138620e+01 -5.495750e+00
1.220670e+01 2.339000e+01 -1.973880e+00
-1.090970e+01 -3.086670e+00 -2.046470e+01
-1.526000e+00 8.350000e+00 -1.842300e+01
3.267680e+01 5.957000e+00 -1.851720e+01
2.057600e+01 1.719500e+01 -1.216470e+01
3.940200e+00 1.943540e+01 -7.897600e+00
1.477030e+01 2.331450e+01 -2.560330e+00
-1.489390e+01 -1.237000e+01 -2.091400e+01
4.416630e+01 -1.230320e+01 -1.945520e+01
3.943130e+01 -1.395560e+00 -1.913030e+01
4.178630e+01 -5.311890e+00 -1.925890e+01
-1.248270e+01 -5.387330e+00 -2.067370e+01
-7.284400e+00 2.881200e+00 -1.985700e+01
5.402250e+00 2.144350e+01 -5.300000e+00
5.991500e+00 2.202950e+01 -4.440500e+00
3.033030e+01 8.281500e+00 -1.834050e+01
2.400370e+01 1.264400e+01 -1.688400e+01
-5.306000e+00 5.198000e+00 -1.953490e+01
9.331330e+00 2.347530e+01 -2.432670e+00
1.034130e+01 2.376030e+01 -2.107330e+00
-9.311000e+00 7.590000e-01 -2.022400e+01
1.667860e+01 2.331690e+01 -3.442670e+00
-1.486680e+01 -1.004580e+01 -2.091820e+01
1.695000e+00 1.229630e+01 -1.693450e+01
-3.056560e+00 7.573670e+00 -1.915000e+01
-1.041700e+01 -9.250000e-01 -2.055040e+01
4.415900e+01 -9.997000e+00 -1.959590e+01
2.259000e+00 1.308100e+01 -1.649800e+01
2.294200e+01 1.417200e+01 -1.620600e+01
2.863000e+00 1.731950e+01 -1.186900e+01
2.055400e+01 1.986900e+01 -9.865500e+00
8.000000e-03 1.071300e+01 -1.838400e+01
1.820900e+01 2.332270e+01 -4.250330e+00
2.053050e+01 2.139950e+01 -7.647500e+00
3.476240e+01 5.659330e+00 -1.908630e+01
-6.952000e+00 4.560000e+00 -2.007100e+01
2.927000e+00 1.617100e+01 -1.408600e+01
4.178640e+01 -3.243290e+00 -1.967640e+01
7.748430e+00 2.385460e+01 -3.130290e+00
4.403330e+00 2.161730e+01 -6.618670e+00
4.598120e+01 -1.672700e+01 -2.004820e+01
3.242080e+01 8.019890e+00 -1.873130e+01
-1.483590e+01 -7.724000e+00 -2.113680e+01
-1.246770e+01 -3.067440e+00 -2.107100e+01
-4.602000e+00 6.818000e+00 -1.990200e+01
4.405560e+01 -7.786120e+00 -1.985140e+01
3.710090e+01 3.296560e+00 -1.951460e+01
2.623250e+00 1.424620e+01 -1.649900e+01
2.803330e+00 1.924600e+01 -1.030930e+01
4.607270e+01 -1.458500e+01 -1.996780e+01
2.057000e+01 1.873900e+01 -1.242300e+01
2.666030e+01 1.086230e+01 -1.924770e+01
1.934780e+01 2.332620e+01 -5.102830e+00
-8.325000e+00 3.251750e+00 -2.061980e+01
2.967000e+00 1.540600e+01 -1.552700e+01
3.922370e+01 8.268570e-01 -1.988700e+01
-1.402000e+00 1.000540e+01 -1.919900e+01
2.811800e+01 1.032650e+01 -1.926100e+01
4.120250e+01 -1.463750e+00 -1.987320e+01
-1.719910e+01 -1.702790e+01 -2.176160e+01
2.136050e+01 1.685300e+01 -1.508850e+01
-1.034820e+01 1.033500e+00 -2.100820e+01
2.214800e+01 1.571600e+01 -1.629900e+01
4.609080e+01 -1.229030e+01 -2.003270e+01
-1.720200e+01 -1.469540e+01 -2.172080e+01
-6.160000e+00 6.081000e+00 -2.042800e+01
4.375480e+01 -5.393830e+00 -1.997630e+01
3.598670e+00 2.159730e+01 -7.903330e+00
1.196700e+01 2.553260e+01 -2.072750e+00
6.272400e+00 2.411240e+01 -4.108200e+00
3.008410e+01 1.030490e+01 -1.908660e+01
4.571670e+01 -9.993670e+00 -2.009300e+01
-2.769000e+00 9.383000e+00 -1.979800e+01
2.454300e+01 1.304000e+01 -1.878200e+01
1.017270e+01 2.558080e+01 -2.118670e+00
-1.481030e+01 -5.398560e+00 -2.155230e+01
-1.720070e+01 -1.236870e+01 -2.176540e+01
4.702050e+01 -1.706530e+01 -2.046150e+01
4.336300e+01 -3.853000e+00 -2.012800e+01
9.036670e+00 2.555000e+01 -2.306000e+00
4.130000e-01 1.227730e+01 -1.896280e+01
1.433690e+01 2.565790e+01 -2.648440e+00
-1.244780e+01 -1.134170e+00 -2.154750e+01
3.476830e+01 7.976440e+00 -1.898320e+01
5.181330e+00 2.394930e+01 -4.873330e+00
4.258100e+01 -2.294000e+00 -2.028300e+01
2.613610e+01 1.263290e+01 -1.917220e+01
3.710910e+01 5.581330e+00 -1.950390e+01
4.494600e+01 -6.937000e+00 -2.035400e+01
1.882000e+00 1.462450e+01 -1.745900e+01
-7.815370e+00 5.448250e+00 -2.081540e+01
3.867500e+01 3.266000e+00 -2.017470e+01
-5.463870e+00 7.708120e+00 -2.057600e+01
4.723200e+01 -1.457700e+01 -2.053400e+01
1.663330e+01 2.565730e+01 -3.354220e+00
2.143620e+01 2.317960e+01 -7.379600e+00
4.024250e+01 1.289000e+00 -2.042850e+01
-1.718520e+01 -1.005600e+01 -2.183480e+01
2.075130e+01 2.384930e+01 -6.433330e+00
4.649700e+01 -9.984000e+00 -2.039130e+01
-1.007260e+01 3.092890e+00 -2.132630e+01
3.243120e+01 1.029510e+01 -1.898680e+01
4.724400e+01 -1.304700e+01 -2.057100e+01
1.279300e+01 2.643500e+01 -2.266000e+00
2.132800e+01 2.180500e+01 -1.029000e+01
7.878500e+00 2.591500e+01 -2.828000e+00
2.812630e+01 1.258850e+01 -1.920350e+01
-9.596670e-01 1.173270e+01 -1.995600e+01
-1.872670e+01 -1.703500e+01 -2.227100e+01
4.233430e+01 -9.893330e-01 -2.066000e+01
4.494830e+01 -5.408670e+00 -2.059270e+01
2.776670e+00 2.156870e+01 -9.866330e+00
-1.872570e+01 -1.469500e+01 -2.213630e+01
1.970000e+01 2.526850e+01 -4.802500e+00
-1.469270e+01 -3.169000e+00 -2.203700e+01
1.871010e+01 2.576970e+01 -4.103290e+00
4.612880e+01 -7.686000e+00 -2.067720e+01
-3.600750e+00 1.011900e+01 -2.050650e+01
-1.707040e+01 -7.841620e+00 -2.208580e+01
4.179250e+00 2.412800e+01 -6.272750e+00
-1.232890e+01 7.030000e-01 -2.197350e+01
2.086000e+00 2.001600e+01 -1.244700e+01
3.985700e+01 3.232330e+00 -2.052870e+01
3.009130e+01 1.256720e+01 -1.900540e+01
2.181000e+00 1.771400e+01 -1.557600e+01
2.382790e+01 1.506700e+01 -1.901900e+01
3.711270e+01 7.866560e+00 -1.924420e+01
-1.871970e+01 -1.236470e+01 -2.225300e+01
2.214050e+01 1.688900e+01 -1.769400e+01
4.837870e+01 -1.687130e+01 -2.103480e+01
5.166000e+00 2.549700e+01 -4.540000e+00
6.095200e+00 2.597180e+01 -3.830600e+00
3.477440e+01 1.026140e+01 -1.890120e+01
1.277500e+01 2.721700e+01 -2.292000e+00
-1.662770e+01 -5.932670e+00 -2.233930e+01
9.378000e+00 2.712450e+01 -2.288500e+00
-7.691560e+00 7.653440e+00 -2.091360e+01
4.839030e+01 -1.457120e+01 -2.096330e+01
4.427140e+01 -3.008500e+00 -2.103410e+01
-1.399500e+01 -1.135000e+00 -2.234650e+01
4.182760e+01 8.442220e-01 -2.109480e+01
3.945820e+01 5.506560e+00 -1.988240e+01
3.111400e+00 2.375760e+01 -7.684400e+00
1.971670e+00 1.694300e+01 -1.704630e+01
4.812490e+01 -1.217850e+01 -2.097480e+01
3.243090e+01 1.255720e+01 -1.858560e+01
-1.004760e+01 5.406890e+00 -2.138800e+01
2.136170e+01 1.878530e+01 -1.631770e+01
-1.870400e+01 -1.005000e+01 -2.236100e+01
2.123340e+01 2.565580e+01 -5.639000e+00
2.611670e+01 1.492440e+01 -1.928200e+01
-5.347220e+00 9.951440e+00 -2.087160e+01
1.894670e+00 1.924630e+01 -1.468730e+01
6.941250e-01 1.470520e+01 -1.940160e+01
-1.986530e+01 -1.704620e+01 -2.281480e+01
4.613970e+01 -5.390170e+00 -2.115600e+01
2.136800e+01 2.105100e+01 -1.383500e+01
-1.985920e+01 -1.470130e+01 -2.271420e+01
-1.720500e+00 1.252270e+01 -2.072900e+01
1.438040e+01 2.790680e+01 -2.485250e+00
2.810370e+01 1.487720e+01 -1.899380e+01
1.232370e+01 2.809890e+01 -2.090710e+00
4.806790e+01 -9.970440e+00 -2.122730e+01
-1.792800e+01 -6.975000e+00 -2.264500e+01
-1.555300e+01 -2.300000e+00 -2.267400e+01
2.018000e+00 2.233300e+01 -1.103400e+01
3.710960e+01 1.017940e+01 -1.879800e+01
1.048840e+01 2.816170e+01 -2.080140e+00
-1.230130e+01 3.222000e+00 -2.214140e+01
3.467090e+01 1.244480e+01 -1.833370e+01
-1.319100e+01 1.576000e+00 -2.257900e+01
1.657940e+01 2.800260e+01 -2.822000e+00
-1.984930e+01 -1.236380e+01 -2.273900e+01
-1.739000e+01 -5.157500e+00 -2.271800e+01
2.370220e+01 1.689250e+01 -1.898080e+01
3.006630e+01 1.485660e+01 -1.868840e+01
1.685000e+00 2.155480e+01 -1.243620e+01
2.286200e+01 2.411700e+01 -9.503000e+00
8.122750e+00 2.797200e+01 -2.581880e+00
-1.515350e+01 -1.137500e+00 -2.280250e+01
4.182470e+01 3.167110e+00 -2.104780e+01
3.742600e+00 2.593820e+01 -5.777200e+00
3.946070e+01 7.772780e+00 -1.956310e+01
4.419430e+01 -9.998570e-01 -2.171930e+01
-1.318200e+01 2.352000e+00 -2.260300e+01
-3.397000e+00 1.228030e+01 -2.109350e+01
1.887930e+01 2.799500e+01 -3.292330e+00
-1.001980e+01 7.719780e+00 -2.117770e+01
-7.667000e+00 9.984000e+00 -2.085730e+01
3.218240e+01 1.473890e+01 -1.824270e+01
2.795000e+00 2.545700e+01 -6.962000e+00
2.303000e+01 2.617100e+01 -6.331330e+00
3.690530e+01 1.192350e+01 -1.823850e+01
3.553600e+01 1.329000e+01 -1.783100e+01
2.158750e+01 2.720100e+01 -4.780500e+00
4.141530e+01 5.846000e+00 -2.006480e+01
-1.983000e+01 -1.004650e+01 -2.297150e+01
5.917670e+00 2.783120e+01 -3.521330e+00
4.810980e+01 -7.666780e+00 -2.165400e+01
1.444000e+00 1.886100e+01 -1.685200e+01
1.986000e+00 2.467000e+01 -8.603000e+00
2.216000e+01 2.257100e+01 -1.334900e+01
4.607980e+01 -3.245000e+00 -2.189180e+01
1.065800e+00 1.677780e+01 -1.921920e+01
4.212240e+01 5.150000e+00 -2.037880e+01
-1.237580e+01 5.453780e+00 -2.183400e+01
2.214170e+01 1.880730e+01 -1.841130e+01
2.618140e+01 1.712900e+01 -1.908060e+01
-1.474580e+01 7.991110e-01 -2.307940e+01
3.944310e+01 1.011420e+01 -1.867420e+01
3.317500e+01 1.522950e+01 -1.796000e+01
3.724200e+01 1.296300e+01 -1.767780e+01
-1.710570e+01 -3.084440e+00 -2.327540e+01
2.358970e+01 2.566770e+01 -8.161000e+00
-1.943520e+01 -7.734890e+00 -2.317110e+01
4.373220e+01 9.434000e-01 -2.203580e+01
5.034610e+01 -1.687870e+01 -2.197460e+01
2.107170e+01 2.819670e+01 -3.884000e+00
3.473530e+01 1.483810e+01 -1.764910e+01
1.351800e+00 2.403900e+01 -1.025920e+01
-1.269430e+00 1.449710e+01 -2.109640e+01
-5.331560e+00 1.230330e+01 -2.123410e+01
5.034890e+01 -1.457020e+01 -2.190070e+01
-2.138450e+01 -1.706200e+01 -2.366150e+01
4.786100e+01 -5.626170e+00 -2.201420e+01
2.823470e+01 1.728800e+01 -1.875710e+01
-1.394000e+01 3.907000e+00 -2.242300e+01
-9.989560e+00 1.003840e+01 -2.075370e+01
-2.137280e+01 -1.471270e+01 -2.356830e+01
2.366800e+01 2.750200e+01 -5.323000e+00
2.369660e+01 1.880060e+01 -1.888410e+01
1.674600e+01 2.972500e+01 -2.337750e+00
9.785000e-01 2.154500e+01 -1.459500e+01
3.941100e+01 1.247430e+01 -1.741660e+01
5.036440e+01 -1.226540e+01 -2.199280e+01
4.578200e+01 -1.548000e+00 -2.242300e+01
3.483370e+00 2.768990e+01 -5.186500e+00
2.192700e+01 2.105870e+01 -1.693730e+01
4.171220e+01 7.854500e+00 -1.990160e+01
7.483330e-01 2.335470e+01 -1.213530e+01
7.700670e+00 2.964870e+01 -2.320000e+00
2.403000e+01 2.529100e+01 -1.021850e+01
-1.481830e+01 3.031870e+00 -2.285830e+01
-7.642670e+00 1.232060e+01 -2.075660e+01
3.013400e+01 1.706450e+01 -1.877890e+01
1.273540e+01 3.028180e+01 -1.712000e+00
-1.234960e+01 7.779110e+00 -2.148160e+01
4.734800e+01 -3.842000e+00 -2.239700e+01
5.002250e+01 -9.962500e+00 -2.209580e+01
1.047370e+01 3.022390e+01 -1.734670e+00
2.329270e+01 2.853570e+01 -4.112500e+00
1.463970e+01 3.029050e+01 -1.896170e+00
4.656700e+01 -2.316000e+00 -2.250600e+01
4.361000e+00 2.857500e+01 -4.220000e+00
2.006000e+00 2.699400e+01 -6.651000e+00
3.706940e+01 1.482220e+01 -1.736870e+01
1.800000e-02 1.692370e+01 -2.033730e+01
4.259500e+01 6.986000e+00 -2.029400e+01
1.203140e+00 2.621390e+01 -7.975570e+00
2.218000e+01 2.031200e+01 -1.833100e+01
-1.941690e+01 -5.418560e+00 -2.370760e+01
4.418740e+01 3.108670e+00 -2.176220e+01
2.595600e+01 1.897600e+01 -1.886100e+01
-1.708500e+01 -1.146170e+00 -2.383480e+01
1.896270e+01 3.006310e+01 -2.653000e+00
4.178230e+01 1.011180e+01 -1.876430e+01
-2.173630e+01 -1.237540e+01 -2.392100e+01
-3.126870e+00 1.472000e+01 -2.156190e+01
-9.703000e+00 1.209470e+01 -2.039230e+01
4.969070e+01 -7.658670e+00 -2.235770e+01
8.458330e+00 3.041930e+01 -2.090170e+00
-1.469880e+01 5.461670e+00 -2.215940e+01
3.472370e+01 1.637700e+01 -1.788600e+01
1.639620e+01 3.073880e+01 -2.026600e+00
4.631300e+01 -1.020000e+00 -2.279830e+01
4.499500e+01 1.555000e+00 -2.253400e+01
3.740000e-01 2.543400e+01 -9.941000e+00
3.238090e+01 1.715140e+01 -1.866790e+01
4.173270e+01 1.248030e+01 -1.707840e+01
5.919110e+00 3.011810e+01 -2.747330e+00
4.866030e+01 -4.852670e+00 -2.267370e+01
4.416580e+01 5.434000e+00 -2.098140e+01
-1.231490e+01 1.009080e+01 -2.084630e+01
2.375380e+01 2.067120e+01 -1.845470e+01
7.413330e-01 1.923430e+01 -1.915700e+01
2.337500e+01 2.369850e+01 -1.464950e+01
2.115510e+01 3.025660e+01 -2.927890e+00
-2.171320e+01 -1.005180e+01 -2.409630e+01
6.705000e-01 2.115200e+01 -1.703650e+01
-1.151500e+01 1.161600e+01 -2.039200e+01
1.846050e+01 3.103400e+01 -2.150000e+00
-5.339890e+00 1.464690e+01 -2.146530e+01
3.940130e+01 1.481160e+01 -1.713120e+01
1.394400e+00 2.822040e+01 -5.973800e+00
-1.046330e+01 1.287930e+01 -2.012170e+01
-2.290550e+01 -1.707330e+01 -2.443950e+01
-1.138170e+00 1.693430e+01 -2.128650e+01
-1.706630e+01 7.933330e-01 -2.402630e+01
2.378070e+01 2.179370e+01 -1.757530e+01
4.589200e+01 6.961250e-01 -2.303840e+01
-1.918370e+01 -3.208430e+00 -2.426100e+01
2.563920e+01 2.854120e+01 -5.778750e+00
2.819000e+00 2.930400e+01 -4.634000e+00
4.460000e-01 2.775100e+01 -6.836000e+00
5.118730e+01 -9.962330e+00 -2.266500e+01
-2.289130e+01 -1.472430e+01 -2.438320e+01
2.609000e+01 2.064920e+01 -1.837850e+01
-5.560000e-01 2.438200e+01 -1.245770e+01
4.824310e+01 -2.968620e+00 -2.300110e+01
2.345910e+01 3.023300e+01 -3.113110e+00
2.853990e+01 1.938060e+01 -1.900080e+01
2.556150e+01 2.647050e+01 -1.028800e+01
-2.147670e+01 -7.842290e+00 -2.422840e+01
-7.637560e+00 1.465660e+01 -2.063020e+01
2.588870e+01 2.761400e+01 -8.086000e+00
-1.467680e+01 7.790330e+00 -2.183670e+01
3.710870e+00 3.017460e+01 -3.524250e+00
4.395930e+01 8.338500e+00 -2.005130e+01
2.449400e+01 2.487300e+01 -1.364400e+01
-1.704180e+01 3.127560e+00 -2.330730e+01
4.431800e+01 7.299400e+00 -2.071720e+01
-1.143330e+00 2.697400e+01 -8.351000e+00
-1.237060e+01 1.249310e+01 -1.995640e+01
2.405500e+01 2.305180e+01 -1.668630e+01
-1.862350e+01 -1.157500e+00 -2.445600e+01
-2.093150e+01 -5.808500e+00 -2.448050e+01
-9.745000e-01 2.600850e+01 -1.034180e+01
-1.099330e+00 2.773870e+01 -7.003330e+00
5.084770e+01 -7.663000e+00 -2.301980e+01
2.619050e+01 2.946950e+01 -4.736500e+00
-1.624550e+01 5.850500e+00 -2.246400e+01
-9.948330e+00 1.468000e+01 -1.980420e+01
4.412260e+01 1.011440e+01 -1.892170e+01
2.610100e+01 2.178630e+01 -1.789900e+01
4.602000e+01 3.638330e+00 -2.227630e+01
3.473200e+01 1.752820e+01 -1.882030e+01
-2.325630e+01 -1.238670e+01 -2.465170e+01
-1.463800e+01 1.010480e+01 -2.085630e+01
1.274670e+00 2.966500e+01 -4.938670e+00
4.630000e+01 2.609330e+00 -2.281230e+01
1.272830e+01 3.253300e+01 -1.333110e+00
-1.506500e+00 2.541700e+01 -1.178350e+01
1.462930e+01 3.254180e+01 -1.350500e+00
4.172460e+01 1.481840e+01 -1.685500e+01
-3.058000e+00 1.695330e+01 -2.177870e+01
4.406740e+01 1.248580e+01 -1.718390e+01
2.566640e+01 3.042570e+01 -3.513710e+00
2.599000e+01 2.593430e+01 -1.247270e+01
2.670500e+01 2.726300e+01 -9.848000e+00
1.046980e+01 3.247580e+01 -1.357670e+00
-1.082670e+00 2.850500e+01 -6.305000e+00
2.842030e+01 2.114180e+01 -1.820900e+01
2.777250e+01 2.873850e+01 -6.425000e+00
5.276340e+01 -1.690690e+01 -2.356500e+01
2.152250e+01 3.175900e+01 -2.264000e+00
1.653800e+01 3.253870e+01 -1.488890e+00
5.164000e+00 3.161800e+01 -2.379000e+00
5.274480e+01 -1.458610e+01 -2.342940e+01
2.764100e+01 2.178300e+01 -1.792600e+01
4.815600e+01 -1.127000e+00 -2.351850e+01
-4.920000e-01 2.229800e+01 -1.718100e+01
-1.179500e+00 2.385170e+01 -1.476800e+01
8.209440e+00 3.241660e+01 -1.532890e+00
-1.724460e+01 5.348430e+00 -2.273160e+01
5.048490e+01 -5.357110e+00 -2.329710e+01
1.883060e+01 3.253010e+01 -1.585000e+00
3.708440e+01 1.713910e+01 -1.837780e+01
2.609690e+01 2.331420e+01 -1.681640e+01
-2.016400e+01 -2.719500e+00 -2.487000e+01
-7.772220e-01 1.924200e+01 -2.089910e+01
4.612920e+01 5.451000e+00 -2.177730e+01
-2.404730e+01 -1.708200e+01 -2.522100e+01
3.033880e+01 1.946400e+01 -1.989660e+01
-1.459780e+01 1.241040e+01 -1.963840e+01
2.819300e+01 2.838500e+01 -7.827500e+00
5.273840e+01 -1.227300e+01 -2.347170e+01
2.623030e+01 2.507230e+01 -1.463430e+01
-2.244400e+01 -7.354500e+00 -2.492550e+01
2.831930e+01 2.965170e+01 -5.174750e+00
1.316000e+00 3.080200e+01 -3.768000e+00
-1.880130e+01 9.735000e-01 -2.454670e+01
-2.403570e+01 -1.473900e+01 -2.520370e+01
6.026870e+00 3.247790e+01 -1.809370e+00
-1.227090e+01 1.471440e+01 -1.954730e+01
-8.143330e-01 2.139350e+01 -1.891280e+01
2.101760e+01 3.272800e+01 -1.661570e+00
-1.292000e+00 2.306950e+01 -1.674050e+01
3.864670e+01 1.713600e+01 -1.806470e+01
-3.122000e+00 2.698300e+01 -9.767500e+00
-1.127000e+00 2.992100e+01 -5.111880e+00
3.081600e+01 1.946200e+01 -2.033200e+01
-2.402230e+01 -1.240100e+01 -2.521070e+01
-2.361750e+01 -1.007280e+01 -2.507700e+01
-2.595000e+00 2.924800e+01 -5.797000e+00
-1.690560e+01 7.887000e+00 -2.225590e+01
2.824880e+01 2.765580e+01 -1.025350e+01
2.342920e+01 3.248940e+01 -1.838330e+00
-2.190730e+01 -5.323140e+00 -2.524540e+01
3.527710e+00 3.213640e+01 -2.571710e+00
-1.977420e+01 -7.831670e-01 -2.515050e+01
-5.275880e+00 1.690320e+01 -2.217310e+01
-3.291000e+00 2.820260e+01 -7.642200e+00
3.317300e+01 1.868200e+01 -2.015100e+01
4.610520e+01 7.774330e+00 -2.096920e+01
2.794540e+01 3.065120e+01 -4.117600e+00
2.839070e+01 2.332560e+01 -1.701990e+01
5.275870e+01 -9.974560e+00 -2.371720e+01
-2.270000e-01 3.078100e+01 -4.138000e+00
3.980530e+01 1.713770e+01 -1.765070e+01
2.832670e+01 2.528420e+01 -1.438850e+01
-1.686500e+01 1.001560e+01 -2.087530e+01
4.815740e+01 8.218890e-01 -2.385930e+01
-1.034000e+01 1.624250e+01 -2.013550e+01
2.829030e+01 2.646700e+01 -1.274630e+01
2.993430e+01 2.971230e+01 -5.464670e+00
-7.664830e+00 1.662820e+01 -2.156070e+01
3.038450e+01 2.139130e+01 -1.892880e+01
4.405700e+01 1.482470e+01 -1.690540e+01
4.645160e+01 1.011260e+01 -1.923990e+01
-1.778500e+01 7.009000e+00 -2.268300e+01
2.573720e+01 3.244260e+01 -1.750440e+00
-3.077780e+00 1.926170e+01 -2.135560e+01
-2.932500e+00 2.463600e+01 -1.479650e+01
-1.550000e+00 2.075800e+01 -2.044800e+01
3.905000e+01 1.998900e+01 -1.536000e+01
5.050710e+01 -3.047330e+00 -2.396140e+01
2.904000e+01 2.726200e+01 -1.144400e+01
-1.936280e+01 3.102440e+00 -2.405290e+01
-3.435000e+00 2.620280e+01 -1.224500e+01
4.639560e+01 1.248410e+01 -1.741670e+01
2.975000e+01 2.878600e+01 -8.401000e+00
2.807270e+01 3.167870e+01 -2.971000e+00
-2.359830e+01 -7.759170e+00 -2.539280e+01
3.228940e+01 1.955530e+01 -2.060420e+01
4.028000e+00 3.311700e+01 -1.971500e+00
-1.691940e+01 1.242160e+01 -1.953680e+01
-1.771600e+01 1.088400e+01 -2.022400e+01
-1.989470e+01 1.023670e+00 -2.510330e+01
3.948930e+01 1.920970e+01 -1.647170e+01
4.750070e+01 5.660000e+00 -2.227100e+01
4.813030e+01 3.150890e+00 -2.332330e+01
3.056700e+01 3.062800e+01 -4.071600e+00
-4.283000e+00 2.776900e+01 -9.389000e+00
-3.750000e+00 2.542750e+01 -1.376800e+01
3.033920e+01 2.332680e+01 -1.725100e+01
3.472790e+01 1.945390e+01 -1.958110e+01
1.333560e+00 3.231970e+01 -3.068670e+00
-2.169520e+01 -3.118670e+00 -2.563790e+01
4.173430e+01 1.714460e+01 -1.720010e+01
3.683700e+01 1.934960e+01 -1.842030e+01
-1.459290e+01 1.473020e+01 -1.957360e+01
3.780450e+01 1.985250e+01 -1.725100e+01
3.061930e+01 2.646270e+01 -1.280500e+01
3.050320e+01 2.536000e+01 -1.459600e+01
-3.082670e+00 2.077830e+01 -2.049230e+01
5.278940e+01 -7.678890e+00 -2.417480e+01
3.059470e+01 2.725330e+01 -1.151700e+01
-3.451380e+00 3.010210e+01 -5.564750e+00
-3.234200e+00 2.386340e+01 -1.674260e+01
-3.112500e+00 2.192320e+01 -1.928730e+01
5.437300e+01 -1.692900e+01 -2.459170e+01
1.272020e+01 3.478040e+01 -7.641110e-01
1.462020e+01 3.478670e+01 -8.071670e-01
3.126200e+01 2.950000e+01 -7.101000e+00
1.046180e+01 3.473370e+01 -7.848890e-01
2.803900e+01 3.276430e+01 -1.348500e+00
-1.848600e+01 1.087000e+01 -2.022600e+01
-1.934100e+01 5.425890e+00 -2.357370e+01
1.652570e+01 3.478290e+01 -8.347780e-01
-1.227650e+01 1.626850e+01 -2.022650e+01
3.182970e+01 2.151770e+01 -1.941230e+01
5.434870e+01 -1.460800e+01 -2.456070e+01
3.071880e+01 2.834760e+01 -1.004660e+01
-6.156000e+00 1.780700e+01 -2.262700e+01
-2.548090e+01 -1.699650e+01 -2.623390e+01
8.203330e+00 3.468420e+01 -8.670000e-01
1.881540e+01 3.477000e+01 -7.966670e-01
5.036340e+01 -1.186200e+00 -2.445440e+01
3.888870e+01 2.141580e+01 -1.520220e+01
-5.037000e+00 2.854100e+01 -8.738000e+00
-1.778000e+00 3.152400e+01 -4.585000e+00
5.432670e+01 -1.228970e+01 -2.450730e+01
3.237850e+01 3.020500e+01 -5.508500e+00
5.259460e+01 -5.473430e+00 -2.436340e+01
3.271300e+01 3.089870e+01 -3.530000e+00
-2.556770e+01 -1.475620e+01 -2.621690e+01
2.111470e+01 3.474220e+01 -7.693330e-01
-4.935000e+00 2.622300e+01 -1.321900e+01
-3.544000e+00 2.309550e+01 -1.843650e+01
-9.872280e+00 1.726040e+01 -2.143900e+01
4.856480e+01 5.321200e+00 -2.272780e+01
-5.295370e+00 1.941960e+01 -2.185400e+01
5.935220e+00 3.464870e+01 -1.062780e+00
3.271600e+01 2.255050e+01 -1.832550e+01
-2.360280e+01 -5.453670e+00 -2.589530e+01
3.218440e+01 2.354770e+01 -1.737340e+01
5.206000e+01 -3.816000e+00 -2.441500e+01
-5.665440e+00 3.000920e+01 -5.617110e+00
-1.931970e+01 7.361670e+00 -2.299650e+01
-8.868750e-01 3.238390e+01 -3.742880e+00
-1.937040e+01 9.980250e+00 -2.095890e+01
3.295430e+01 2.645400e+01 -1.278570e+01
3.054380e+01 3.196940e+01 -3.239400e+00
3.192500e+01 3.164400e+01 -2.903000e+00
-1.930230e+01 8.525000e+00 -2.228030e+01
4.805640e+01 7.788890e+00 -2.172390e+01
-6.163000e+00 1.858500e+01 -2.259000e+01
3.292870e+01 2.724000e+01 -1.175900e+01
3.738480e+01 2.140280e+01 -1.722870e+01
-5.384670e+00 2.083800e+01 -2.066670e+01
4.835550e+01 1.169150e+01 -1.834950e+01
-2.555720e+01 -1.242580e+01 -2.632030e+01
5.433150e+01 -1.037500e+01 -2.466500e+01
-2.169730e+01 -8.024440e-01 -2.602060e+01
3.015580e+01 3.293200e+01 -1.345500e+00
2.341720e+01 3.471360e+01 -8.687780e-01
3.147600e+01 2.488100e+01 -1.648700e+01
4.839050e+01 1.050400e+01 -1.952970e+01
4.639420e+01 1.482190e+01 -1.737370e+01
5.012350e+01 8.385000e-01 -2.454630e+01
-2.090750e+01 3.466500e+00 -2.460400e+01
3.260800e+01 2.566550e+01 -1.482700e+01
3.624100e+01 2.139650e+01 -1.827950e+01
-7.698330e+00 1.783070e+01 -2.281100e+01
4.406330e+01 1.715090e+01 -1.713840e+01
3.654330e+00 3.461740e+01 -1.583440e+00
4.841650e+01 9.336000e+00 -2.070550e+01
-1.421200e+01 1.628200e+01 -2.019450e+01
3.470380e+01 2.138950e+01 -1.941630e+01
-1.923710e+01 1.240430e+01 -1.967620e+01
-5.393830e+00 2.197930e+01 -1.977030e+01
-5.800000e+00 2.577260e+01 -1.449180e+01
3.289800e+01 2.126030e+01 -2.067270e+01
-5.353500e+00 2.448830e+01 -1.667400e+01
-3.332750e+00 3.171050e+01 -4.986250e+00
-1.691490e+01 1.474220e+01 -1.964440e+01
4.170600e+01 1.947140e+01 -1.683030e+01
4.856380e+01 1.295320e+01 -1.756100e+01
3.290020e+01 2.841850e+01 -1.057780e+01
-2.554190e+01 -1.010940e+01 -2.637930e+01
