7.896490e-01 3.002070e+00 -1.717380e-01
-1.505530e+00 2.977670e+00 -3.145970e-02
2.675710e+00 2.947120e+00 -5.910090e-01
-3.073080e+00 3.223460e+00 -4.389520e-01
3.800220e+00 2.884970e+00 -9.502760e-01
-4.057730e+00 2.625650e+00 -7.084480e-01
7.120270e-01 5.173550e+00 -8.628050e-01
2.489470e+00 4.641530e+00 -1.092440e+00
-1.582810e+00 5.144830e+00 -7.382220e-01
5.265690e+00 2.689190e+00 -1.850650e+00
3.211600e+00 5.316890e+00 -1.596390e+00
-3.916380e+00 4.907890e+00 -1.429360e+00
2.771010e-01 6.594400e+00 -1.390760e+00
-6.161140e+00 2.434100e+00 -1.644630e+00
-1.264030e+00 6.937130e+00 -1.425700e+00
5.184470e+00 4.859110e+00 -2.554300e+00
6.713860e+00 2.463080e+00 -2.853390e+00
7.226780e-01 7.472400e+00 -1.953160e+00
-1.988840e+00 7.514100e+00 -1.865480e+00
-6.139230e+00 4.511630e+00 -2.350380e+00
2.873470e+00 7.162910e+00 -2.519890e+00
-3.997350e+00 7.017530e+00 -2.378110e+00
6.641870e+00 4.258580e+00 -3.484640e+00
7.766780e+00 2.161990e+00 -4.094950e+00
4.869660e+00 6.804100e+00 -3.680210e+00
-5.735080e+00 6.577380e+00 -3.145950e+00
-7.036530e+00 5.174000e+00 -3.114480e+00
-8.470300e+00 1.895900e+00 -3.426820e+00
5.227640e-01 9.299820e+00 -3.132000e+00
7.521980e+00 4.439160e+00 -4.804510e+00
-1.760800e+00 9.271310e+00 -3.027150e+00
-8.327200e+00 4.036980e+00 -3.881230e+00
2.675570e+00 9.100820e+00 -3.727990e+00
5.770370e+00 7.069520e+00 -4.677310e+00
4.269700e+00 8.304980e+00 -4.313960e+00
-6.789640e+00 6.725620e+00 -3.835560e+00
-3.863430e+00 8.958290e+00 -3.603010e+00
8.799120e+00 2.215850e+00 -5.487100e+00
8.758520e+00 3.294120e+00 -5.859860e+00
7.008380e+00 6.329620e+00 -5.684420e+00
-8.168220e+00 6.139670e+00 -4.742130e+00
3.455650e+00 9.705420e+00 -4.864950e+00
-4.886000e+00 9.229190e+00 -4.425150e+00
-9.335830e+00 4.186520e+00 -5.146500e+00
5.039670e+00 8.911500e+00 -5.440820e+00
2.310630e+00 1.048800e+01 -4.771040e+00
9.599270e+00 1.490050e+00 -6.815990e+00
-1.033270e+01 1.452590e+00 -5.487570e+00
-6.416410e+00 8.670310e+00 -4.908990e+00
4.137600e-01 1.127120e+01 -4.634320e+00
-3.391950e+00 1.082380e+01 -4.510790e+00
-1.856230e+00 1.130370e+01 -4.324400e+00
6.392070e+00 8.151500e+00 -6.611380e+00
7.890030e+00 6.503710e+00 -7.027400e+00
-7.930630e+00 7.643810e+00 -5.664740e+00
9.411470e+00 3.695190e+00 -7.390500e+00
-1.040790e+01 3.365160e+00 -6.036890e+00
-9.223400e+00 6.107360e+00 -6.129810e+00
2.739610e+00 1.128620e+01 -5.608190e+00
-4.416680e+00 1.112580e+01 -5.218500e+00
8.784770e+00 5.666770e+00 -8.055750e+00
4.629880e+00 1.067650e+01 -6.822880e+00
7.273960e+00 8.317760e+00 -7.995070e+00
-1.020150e+01 5.656200e+00 -6.981780e+00
-2.113270e-02 1.266820e+01 -5.294590e+00
-1.535840e+00 1.267450e+01 -5.155020e+00
-6.300340e+00 1.062430e+01 -6.114670e+00
1.008970e+01 4.140730e+00 -8.767180e+00
-8.846720e+00 8.149830e+00 -7.044740e+00
-1.169650e+01 1.496980e+00 -7.433170e+00
1.087260e+01 1.304830e+00 -9.157590e+00
-1.150670e+01 3.524940e+00 -7.807730e+00
5.537270e+00 1.095190e+01 -7.810700e+00
4.099080e-01 1.346610e+01 -6.150350e+00
4.038310e+00 1.215880e+01 -7.501170e+00
1.082160e+01 3.127240e+00 -9.710710e+00
9.726880e+00 5.602920e+00 -9.765860e+00
-2.079470e+00 1.348270e+01 -5.901200e+00
-7.319930e+00 1.087050e+01 -7.028310e+00
2.539140e+00 1.308270e+01 -6.887690e+00
6.531590e+00 1.013520e+01 -8.957910e+00
-4.293040e+00 1.306220e+01 -6.464430e+00
-1.253460e+01 1.195020e+00 -8.387610e+00
-1.148630e+01 5.113530e+00 -8.779630e+00
-5.841530e+00 1.249930e+01 -6.989850e+00
-8.471730e+00 1.021020e+01 -7.913220e+00
8.985360e+00 7.474050e+00 -1.054920e+01
1.076420e+01 4.436400e+00 -1.072450e+01
-1.070490e+01 7.287360e+00 -9.060970e+00
1.194760e+01 8.738420e-01 -1.088180e+01
4.800280e+00 1.269650e+01 -8.924960e+00
7.456460e+00 1.012990e+01 -1.045400e+01
6.157870e+00 1.159880e+01 -9.927730e+00
-6.866840e+00 1.270730e+01 -8.041570e+00
1.189930e+01 2.700460e+00 -1.143220e+01
1.960280e+00 1.463860e+01 -7.930150e+00
-9.707430e+00 9.782370e+00 -9.366960e+00
-1.300600e+01 2.958730e+00 -9.994360e+00
2.035780e-01 1.522530e+01 -7.588170e+00
-2.065680e+00 1.526200e+01 -7.285100e+00
8.347860e+00 9.252430e+00 -1.165200e+01
-8.196110e+00 1.194310e+01 -8.888630e+00
-3.990910e+00 1.474300e+01 -7.601800e+00
1.133330e+01 4.829460e+00 -1.229210e+01
9.873490e+00 7.530680e+00 -1.236420e+01
-1.054280e+01 9.487320e+00 -1.033920e+01
-1.281890e+01 4.828990e+00 -1.104160e+01
-1.188890e+01 7.089560e+00 -1.092200e+01
2.659650e+00 1.516620e+01 -8.957280e+00
6.686870e+00 1.201200e+01 -1.143990e+01
-4.727880e+00 1.521550e+01 -8.446420e+00
1.062840e+01 6.561370e+00 -1.314560e+01
4.164530e+00 1.446350e+01 -1.015240e+01
-9.184400e+00 1.195750e+01 -1.021510e+01
-6.528800e+00 1.454590e+01 -9.231030e+00
-2.428780e-01 1.653970e+01 -8.553130e+00
9.146110e+00 9.219840e+00 -1.335730e+01
-2.139020e+00 1.655190e+01 -8.368620e+00
-1.292330e+01 5.728340e+00 -1.210040e+01
-1.161480e+01 8.826280e+00 -1.186960e+01
-1.424210e+01 2.585800e+00 -1.241730e+01
1.215820e+01 4.725880e+00 -1.427370e+01
5.064620e+00 1.442270e+01 -1.181510e+01
7.459280e+00 1.195990e+01 -1.326080e+01
5.974260e+00 1.369310e+01 -1.247080e+01
-7.592150e+00 1.474470e+01 -1.032980e+01
8.443220e+00 1.088110e+01 -1.396430e+01
1.894250e-01 1.732440e+01 -9.401420e+00
1.333500e+01 2.345830e+00 -1.438040e+01
-1.394450e+01 4.417050e+00 -1.306820e+01
2.093110e+00 1.678800e+01 -1.029090e+01
-9.955820e+00 1.229600e+01 -1.185660e+01
1.132210e+01 6.491140e+00 -1.499810e+01
-2.194760e+00 1.750330e+01 -9.191960e+00
-8.707930e+00 1.395800e+01 -1.111860e+01
-1.093600e+01 1.110220e+01 -1.243020e+01
-4.511840e+00 1.693550e+01 -9.684190e+00
1.291830e+01 3.787990e+00 -1.488910e+01
-1.330310e+01 6.414410e+00 -1.342690e+01
9.699180e+00 9.649130e+00 -1.477860e+01
-6.078350e+00 1.636770e+01 -1.025700e+01
-1.234620e+01 8.904510e+00 -1.368980e+01
6.632340e+00 1.370990e+01 -1.403670e+01
1.046160e+01 8.195810e+00 -1.593050e+01
2.972930e+00 1.697460e+01 -1.158620e+01
3.988000e+00 1.627000e+01 -1.230760e+01
-1.536130e+01 1.783040e+00 -1.438760e+01
-1.464950e+01 4.584810e+00 -1.452720e+01
9.013440e+00 1.112860e+01 -1.572410e+01
-7.155060e+00 1.654740e+01 -1.142730e+01
1.467310e+00 1.819550e+01 -1.126950e+01
-9.884440e+00 1.379080e+01 -1.301200e+01
-1.393500e+01 6.548020e+00 -1.480880e+01
-1.318650e+01 8.204370e+00 -1.470700e+01
-8.516030e+00 1.541910e+01 -1.223170e+01
1.344880e+01 4.001420e+00 -1.637200e+01
-1.087330e+01 1.257690e+01 -1.370120e+01
-1.205410e+01 1.072210e+01 -1.444160e+01
1.201770e+01 6.357420e+00 -1.711540e+01
-1.244720e-01 1.894010e+01 -1.091430e+01
-2.299420e+00 1.906350e+01 -1.065960e+01
4.873770e+00 1.616120e+01 -1.424450e+01
-4.045990e+00 1.875390e+01 -1.097280e+01
1.442780e+01 1.736760e+00 -1.679170e+01
-1.548500e+01 3.054600e+00 -1.554400e+01
7.274530e+00 1.362160e+01 -1.604020e+01
1.280440e+01 5.495380e+00 -1.745520e+01
5.772170e+00 1.536880e+01 -1.517720e+01
1.089670e+01 8.101180e+00 -1.787760e+01
3.586970e+00 1.768420e+01 -1.347580e+01
-1.403880e+01 7.464620e+00 -1.586270e+01
-1.480290e+01 5.330830e+00 -1.618890e+01
2.210080e+00 1.873150e+01 -1.267870e+01
8.198000e+00 1.284940e+01 -1.684490e+01
-5.140980e+00 1.889610e+01 -1.171380e+01
6.423570e-01 1.956350e+01 -1.195940e+01
-9.093290e+00 1.596680e+01 -1.370540e+01
-1.126050e+01 1.295640e+01 -1.526840e+01
9.529180e+00 1.126220e+01 -1.777350e+01
-1.627300e+01 1.212070e+00 -1.639410e+01
-6.823570e+00 1.837350e+01 -1.259840e+01
1.437120e+01 2.536730e+00 -1.823860e+01
1.029660e+01 9.442690e+00 -1.874220e+01
-1.259190e+01 1.102770e+01 -1.628960e+01
-8.664930e-01 2.036820e+01 -1.174910e+01
-2.383690e+00 2.037830e+01 -1.159870e+01
-1.337230e+01 9.688740e+00 -1.666650e+01
-1.561480e+01 3.825690e+00 -1.720900e+01
6.426030e+00 1.535110e+01 -1.690990e+01
4.106250e+00 1.809940e+01 -1.500320e+01
-1.491400e+01 6.184690e+00 -1.752780e+01
1.311240e+01 5.384330e+00 -1.938750e+01
1.147240e+01 7.622170e+00 -1.977920e+01
-1.029390e+01 1.531410e+01 -1.553460e+01
-1.420480e+01 8.149290e+00 -1.778300e+01
1.431410e+01 3.006730e+00 -1.941400e+01
8.935150e+00 1.257380e+01 -1.884840e+01
-7.899420e+00 1.855450e+01 -1.377600e+01
-1.190090e+01 1.290700e+01 -1.692980e+01
-1.111480e+01 1.428390e+01 -1.640010e+01
-1.021200e-01 2.098890e+01 -1.280520e+01
-8.707120e+00 1.798590e+01 -1.441350e+01
1.559650e+00 2.053050e+01 -1.376210e+01
-1.269580e+01 1.193850e+01 -1.745990e+01
-2.464570e+00 2.131770e+01 -1.247300e+01
1.021260e+01 9.803600e+00 -2.042990e+01
-4.786230e+00 2.079770e+01 -1.282490e+01
-6.356400e+00 2.022860e+01 -1.344400e+01
-1.646330e+01 2.570720e+00 -1.891270e+01
-1.403050e+01 9.540190e+00 -1.868140e+01
4.835810e+00 1.795780e+01 -1.725160e+01
7.052540e+00 1.521010e+01 -1.916510e+01
1.178780e+01 7.163410e+00 -2.152690e+01
3.639360e+00 1.965080e+01 -1.604960e+01
2.489420e+00 2.056870e+01 -1.510180e+01
5.550840e+00 1.739230e+01 -1.805020e+01
7.807790e+00 1.428110e+01 -1.986060e+01
-9.789370e+00 1.730550e+01 -1.623890e+01
-1.579520e+01 4.789800e+00 -1.970800e+01
1.340280e+01 4.782940e+00 -2.160910e+01
9.361120e+00 1.204780e+01 -2.097490e+01
-1.161750e+01 1.464620e+01 -1.800870e+01
-1.318420e+01 1.195400e+01 -1.888510e+01
-1.509160e+01 7.166890e+00 -1.988480e+01
-7.441950e+00 2.037500e+01 -1.475570e+01
-8.798390e+00 1.927270e+01 -1.550760e+01
1.419170e+01 3.099600e+00 -2.196250e+01
1.064080e+01 9.247030e+00 -2.258730e+01
6.411820e+00 1.683600e+01 -1.963640e+01
-4.704440e+00 2.224580e+01 -1.397350e+01
-4.333640e-01 2.262560e+01 -1.425340e+01
1.252590e+01 5.995840e+00 -2.296950e+01
-1.659510e+01 3.312870e+00 -2.070970e+01
-2.598770e+00 2.286610e+01 -1.398570e+01
4.159840e+00 1.987480e+01 -1.795240e+01
-1.048430e+01 1.744650e+01 -1.795910e+01
-1.443110e+01 9.763010e+00 -2.078170e+01
9.287510e+00 1.250120e+01 -2.231150e+01
8.292740e+00 1.443010e+01 -2.164350e+01
1.166720e+01 7.360730e+00 -2.374540e+01
1.732630e+00 2.236200e+01 -1.602000e+01
-1.131170e+01 1.638360e+01 -1.897740e+01
-1.630520e+01 4.673780e+00 -2.164530e+01
-9.286440e+00 1.967360e+01 -1.698040e+01
-1.212390e+01 1.495480e+01 -1.977190e+01
-1.522210e+01 8.346190e+00 -2.145800e+01
-1.291680e+01 1.359300e+01 -2.028010e+01
-1.397840e+01 1.125220e+01 -2.128490e+01
-1.739000e+01 1.864070e+00 -2.166200e+01
-3.617860e-02 2.334820e+01 -1.539310e+01
-5.141600e+00 2.299940e+01 -1.508960e+01
-1.599090e+01 6.148160e+00 -2.212020e+01
1.002400e+01 1.136240e+01 -2.367310e+01
-6.943480e+00 2.232600e+01 -1.579600e+01
1.488630e+01 9.161790e-01 -2.414170e+01
4.666040e+00 2.014790e+01 -1.945140e+01
6.860550e+00 1.691650e+01 -2.173730e+01
5.558710e+00 1.894840e+01 -2.049690e+01
7.621510e+00 1.597200e+01 -2.243960e+01
1.118640e+01 8.619000e+00 -2.501250e+01
3.481550e+00 2.172590e+01 -1.856110e+01
-1.193510e+01 1.630040e+01 -2.064830e+01
2.457550e+00 2.283740e+01 -1.770920e+01
-8.167880e+00 2.198600e+01 -1.708720e+01
1.320650e+01 4.491260e+00 -2.559950e+01
9.169740e+00 1.362890e+01 -2.408510e+01
-1.534420e+01 9.121660e+00 -2.299070e+01
-1.354610e+01 1.347250e+01 -2.200130e+01
-1.039710e+01 1.924360e+01 -1.940760e+01
1.236970e+01 5.968220e+00 -2.601350e+01
1.221920e+00 2.398410e+01 -1.712950e+01
-1.461030e+01 1.115100e+01 -2.297700e+01
-2.765800e+00 2.465400e+01 -1.612240e+01
-1.753490e+01 2.561570e+00 -2.358070e+01
-8.981350e+00 2.175930e+01 -1.795620e+01
-5.079680e-01 2.459640e+01 -1.657740e+01
-6.639670e+00 2.366460e+01 -1.662510e+01
1.072120e+01 1.088850e+01 -2.555030e+01
1.398870e+01 2.735840e+00 -2.618330e+01
-1.685500e+01 4.403080e+00 -2.412060e+01
-5.005690e+00 2.440350e+01 -1.652490e+01
6.275250e+00 1.864370e+01 -2.259750e+01
8.055340e+00 1.593980e+01 -2.414670e+01
-1.617550e+01 6.680590e+00 -2.453870e+01
4.370180e+00 2.154560e+01 -2.088020e+01
-1.543670e+01 1.002430e+01 -2.401950e+01
-1.229760e+01 1.665140e+01 -2.214470e+01
-9.822500e+00 2.140930e+01 -1.932600e+01
-1.311260e+01 1.520650e+01 -2.292300e+01
9.877470e+00 1.322150e+01 -2.573380e+01
-1.148800e+01 1.847060e+01 -2.144140e+01
3.067890e+00 2.356060e+01 -1.956950e+01
1.865380e+00 2.439290e+01 -1.869710e+01
1.146080e+01 8.395020e+00 -2.740030e+01
-5.947310e+00 2.496590e+01 -1.768850e+01
-1.767040e+01 2.871900e+00 -2.541760e+01
-7.597800e+00 2.411780e+01 -1.825560e+01
-1.448230e+01 1.273250e+01 -2.442140e+01
-9.050180e+00 2.305980e+01 -1.895150e+01
6.708030e+00 1.862990e+01 -2.425740e+01
-2.858230e+00 2.586120e+01 -1.753100e+01
-1.344990e+00 2.583480e+01 -1.779390e+01
5.223220e+00 2.086210e+01 -2.300140e+01
7.444030e+00 1.763280e+01 -2.516230e+01
1.223480e+01 6.083570e+00 -2.854930e+01
-1.859620e+01 1.038800e+00 -2.561110e+01
-1.071220e+01 2.085930e+01 -2.142130e+01
3.575470e+00 2.388110e+01 -2.073680e+01
8.803040e+00 1.560010e+01 -2.633020e+01
1.139180e+01 1.027460e+01 -2.793500e+01
-1.374990e+01 1.508140e+01 -2.463900e+01
-1.240150e+01 1.783860e+01 -2.351860e+01
-1.596680e+01 1.026580e+01 -2.587770e+01
-1.635670e+01 8.942450e+00 -2.630420e+01
1.076160e+01 1.249660e+01 -2.783610e+01
9.761490e+00 1.436990e+01 -2.738180e+01
-5.662740e-01 2.644420e+01 -1.897360e+01
-1.484380e+01 1.311700e+01 -2.577680e+01
-1.710430e+01 5.553020e+00 -2.711170e+01
-9.580560e+00 2.364600e+01 -2.033550e+01
1.290550e+00 2.591050e+01 -1.988240e+01
-5.234770e+00 2.628360e+01 -1.875780e+01
-2.932220e+00 2.671660e+01 -1.881740e+01
6.081610e+00 2.013770e+01 -2.522170e+01
7.899400e+00 1.768710e+01 -2.655220e+01
1.296380e+01 4.089020e+00 -3.012230e+01
1.213120e+01 7.364770e+00 -2.984600e+01
4.407670e+00 2.309410e+01 -2.332840e+01
-6.997750e+00 2.588310e+01 -1.943230e+01
-1.162960e+01 2.024920e+01 -2.348520e+01
-1.566740e+01 1.204620e+01 -2.659840e+01
-1.687510e+01 7.646030e+00 -2.748910e+01
-1.332190e+01 1.721480e+01 -2.555380e+01
3.104250e+00 2.549040e+01 -2.208670e+01
-1.077180e+01 2.293700e+01 -2.241200e+01
1.955100e+00 2.634600e+01 -2.138520e+01
1.006390e+01 1.477400e+01 -2.890740e+01
1.237510e+01 9.549410e+00 -3.018480e+01
1.371070e+01 2.654900e+00 -3.105270e+01
-1.836670e+01 2.948520e+00 -2.841190e+01
1.287710e+01 5.039850e+00 -3.114880e+01
-8.079050e+00 2.593570e+01 -2.059960e+01
1.124540e+01 1.261450e+01 -2.969750e+01
-1.476810e+01 1.452040e+01 -2.709120e+01
-1.936790e+01 9.140610e-01 -2.804670e+01
5.076740e+00 2.217870e+01 -2.555340e+01
-9.168720e+00 2.522970e+01 -2.120530e+01
1.284560e+01 7.115200e+00 -3.093330e+01
7.327250e+00 1.899970e+01 -2.753880e+01
-9.174520e-01 2.778540e+01 -2.025430e+01
-1.690970e+01 9.938220e+00 -2.824310e+01
-2.993930e+00 2.798430e+01 -2.003020e+01
-4.793360e+00 2.776970e+01 -2.019500e+01
-1.256720e+01 1.957790e+01 -2.571050e+01
8.639900e+00 1.730700e+01 -2.890560e+01
6.532230e+00 2.011240e+01 -2.772120e+01
1.198560e+01 1.199110e+01 -3.065080e+01
1.360250e+01 4.854340e+00 -3.194970e+01
-1.841830e+01 4.870290e+00 -2.936880e+01
9.600460e+00 1.614150e+01 -2.970430e+01
-1.174300e+01 2.178950e+01 -2.500610e+01
1.276330e+01 1.027950e+01 -3.120240e+01
3.577560e+00 2.563910e+01 -2.397340e+01
1.356620e+01 6.906490e+00 -3.183050e+01
-1.425250e+01 1.656350e+01 -2.765500e+01
-1.641940e+01 1.234380e+01 -2.887930e+01
5.364490e+00 2.213940e+01 -2.732080e+01
-1.017890e+01 2.511200e+01 -2.310570e+01
1.203770e+00 2.783290e+01 -2.226000e+01
1.461160e+01 2.843090e+00 -3.243650e+01
-6.409060e-01 2.855080e+01 -2.149940e+01
7.622900e+00 1.893930e+01 -2.936380e+01
-5.607900e+00 2.827280e+01 -2.128170e+01
-1.955730e+01 2.350330e+00 -2.985040e+01
-1.842480e+01 6.916000e+00 -2.991950e+01
-1.348010e+01 1.861930e+01 -2.753840e+01
-3.049470e+00 2.887230e+01 -2.121760e+01
1.093690e+01 1.444570e+01 -3.104180e+01
-7.419680e+00 2.757170e+01 -2.186460e+01
-1.739740e+01 1.030950e+01 -2.966250e+01
4.215620e+00 2.427930e+01 -2.642300e+01
1.470560e+01 4.638870e+00 -3.289700e+01
1.268560e+01 1.168330e+01 -3.199880e+01
1.188840e+01 1.328570e+01 -3.182890e+01
1.377380e+01 9.291070e+00 -3.265850e+01
-1.184620e+01 2.261550e+01 -2.627670e+01
-1.819120e+01 8.878370e+00 -3.051290e+01
-1.592850e+01 1.429900e+01 -2.974970e+01
2.975680e+00 2.725790e+01 -2.447970e+01
2.087760e+00 2.800650e+01 -2.372780e+01
1.464860e+01 6.597340e+00 -3.314200e+01
-1.516610e+01 1.597090e+01 -2.956210e+01
-1.969970e+01 4.402460e+00 -3.091420e+01
1.014370e+01 1.644460e+01 -3.167970e+01
1.591420e+01 8.484810e-01 -3.355800e+01
-9.610220e+00 2.669960e+01 -2.406960e+01
-1.095800e+01 2.539490e+01 -2.488760e+01
6.032250e-01 2.928110e+01 -2.323640e+01
-8.271970e+00 2.794800e+01 -2.343310e+01
-1.749060e+01 1.155380e+01 -3.091180e+01
4.857950e+00 2.330030e+01 -2.889170e+01
1.604630e+01 2.606720e+00 -3.384540e+01
-2.043740e+01 1.504050e+00 -3.135720e+01
1.338340e+01 1.137900e+01 -3.329440e+01
-1.282160e+01 2.068100e+01 -2.875780e+01
5.827190e+00 2.133740e+01 -3.059090e+01
-3.154130e+00 3.015410e+01 -2.254310e+01
-1.958290e+01 6.817970e+00 -3.146960e+01
-5.191950e+00 2.980680e+01 -2.267310e+01
-9.985780e-01 2.999140e+01 -2.303170e+01
-6.978980e+00 2.913500e+01 -2.307990e+01
8.139660e+00 1.902950e+01 -3.166320e+01
1.475770e+01 8.652670e+00 -3.381340e+01
4.097010e+00 2.501360e+01 -2.820340e+01
-1.418050e+01 1.829480e+01 -2.996520e+01
-1.196480e+01 2.301660e+01 -2.766430e+01
1.617780e+01 4.355500e+00 -3.415980e+01
1.225280e+01 1.388910e+01 -3.330440e+01
3.425520e+00 2.739090e+01 -2.640510e+01
1.707450e+01 2.163390e+00 -3.425380e+01
-2.056170e+01 4.077630e+00 -3.198880e+01
-1.709420e+01 1.363780e+01 -3.146930e+01
9.402070e+00 1.816840e+01 -3.260870e+01
1.611930e+01 6.299540e+00 -3.444380e+01
-1.928940e+01 8.948290e+00 -3.205330e+01
1.330990e+00 2.983050e+01 -2.475320e+01
-1.052960e+01 2.696700e+01 -2.591410e+01
1.094650e+01 1.639860e+01 -3.355910e+01
-6.023670e+00 3.036010e+01 -2.362360e+01
1.730680e+01 4.251250e+00 -3.468200e+01
-2.389030e-01 3.063670e+01 -2.417230e+01
-2.061750e+01 6.345430e+00 -3.239620e+01
1.447450e+01 1.109230e+01 -3.449240e+01
-1.631350e+01 1.559440e+01 -3.178790e+01
-7.873530e+00 2.954670e+01 -2.449100e+01
-2.155800e+01 1.626420e+00 -3.261490e+01
2.673500e+00 2.950420e+01 -2.580930e+01
6.218990e+00 2.124530e+01 -3.259040e+01
1.603380e+01 8.548820e+00 -3.509940e+01
7.180370e+00 2.059770e+01 -3.294910e+01
4.704540e+00 2.392390e+01 -3.111470e+01
-1.904310e+01 1.091760e+01 -3.279330e+01
-1.378500e+01 1.947930e+01 -3.153230e+01
-3.639860e+00 3.142780e+01 -2.387910e+01
1.168530e+01 1.581930e+01 -3.440340e+01
1.722740e+01 6.095380e+00 -3.535260e+01
-2.066660e+01 7.770210e+00 -3.299610e+01
1.888400e+01 2.180290e+00 -3.498680e+01
3.984720e+00 2.621270e+01 -2.969780e+01
-2.182820e+01 3.725640e+00 -3.313370e+01
-1.514160e+01 1.783530e+01 -3.230680e+01
-1.764690e+01 1.418220e+01 -3.292370e+01
3.341940e+00 2.916900e+01 -2.724400e+01
1.008190e+01 1.818380e+01 -3.424100e+01
-1.610660e+01 1.671400e+01 -3.263390e+01
-1.305350e+01 2.106970e+01 -3.163180e+01
-9.869820e+00 2.882740e+01 -2.637120e+01
1.399300e+01 1.323740e+01 -3.542630e+01
1.880290e+01 4.069990e+00 -3.555320e+01
1.576120e+01 1.059000e+01 -3.574970e+01
-8.753290e+00 2.999530e+01 -2.572110e+01
1.241350e+01 1.564130e+01 -3.523170e+01
1.715420e+01 8.378340e+00 -3.582860e+01
-1.080830e+00 3.202190e+01 -2.496480e+01
5.570930e+00 2.287900e+01 -3.307310e+01
-2.187290e+01 5.986050e+00 -3.362360e+01
-3.224730e+00 3.228250e+01 -2.462130e+01
-1.875950e+01 1.298500e+01 -3.375700e+01
-5.643210e+00 3.193380e+01 -2.482390e+01
-2.299710e+01 1.590660e+00 -3.362380e+01
8.964360e-01 3.171210e+01 -2.594200e+01
-1.228430e+01 2.316080e+01 -3.143970e+01
8.126080e+00 2.061130e+01 -3.449880e+01
1.872930e+01 5.928640e+00 -3.613830e+01
-1.999690e+01 1.145760e+01 -3.408560e+01
-2.307580e+01 3.472840e+00 -3.393190e+01
-7.549020e+00 3.149330e+01 -2.567680e+01
1.550020e+01 1.220830e+01 -3.641810e+01
-1.752140e+01 1.547310e+01 -3.410700e+01
-1.414770e+01 1.976710e+01 -3.347000e+01
9.189340e+00 1.990300e+01 -3.524060e+01
1.077130e+01 1.824290e+01 -3.569140e+01
-2.162490e+01 8.288670e+00 -3.436750e+01
1.675800e+01 1.075780e+01 -3.652520e+01
1.344080e+01 1.523690e+01 -3.630030e+01
2.116030e+01 2.006600e+00 -3.580870e+01
-1.106720e+01 2.867590e+01 -2.812910e+01
-2.401360e+01 9.767770e-01 -3.396110e+01
1.793020e+00 3.201380e+01 -2.688920e+01
6.060150e+00 2.315900e+01 -3.442870e+01
4.546990e+00 2.540290e+01 -3.308480e+01
-2.310650e+01 5.735270e+00 -3.446600e+01
-1.666090e+01 1.718590e+01 -3.442310e+01
-1.851920e+01 1.447700e+01 -3.473440e+01
1.864650e+01 8.141800e+00 -3.684040e+01
2.873250e+00 3.138570e+01 -2.791500e+01
1.183820e+01 1.754900e+01 -3.638300e+01
2.107540e+01 3.904830e+00 -3.639030e+01
3.854790e+00 2.822700e+01 -3.115870e+01
-8.672990e+00 3.153490e+01 -2.672410e+01
-1.987220e+01 1.301600e+01 -3.496000e+01
-2.428180e+01 3.297440e+00 -3.453510e+01
7.101990e+00 2.243470e+01 -3.530550e+01
2.804660e-01 3.325660e+01 -2.656060e+01
-2.149220e+01 1.027240e+01 -3.515800e+01
-1.318610e+01 2.207970e+01 -3.393410e+01
-1.239290e+01 2.395280e+01 -3.298570e+01
-2.312750e+01 7.189810e+00 -3.505050e+01
-9.707560e+00 3.104690e+01 -2.765620e+01
1.630100e+01 1.285100e+01 -3.743350e+01
2.267910e+01 1.876620e+00 -3.639890e+01
-3.475720e+00 3.413810e+01 -2.583840e+01
-1.519060e+01 1.948410e+01 -3.504580e+01
-7.331850e+00 3.306610e+01 -2.642600e+01
2.099760e+01 5.727920e+00 -3.709430e+01
1.441220e+01 1.529180e+01 -3.754950e+01
1.000170e+01 1.993190e+01 -3.682580e+01
-1.238260e+00 3.406390e+01 -2.638640e+01
-2.431150e+01 5.555420e+00 -3.510180e+01
1.856120e+01 1.033050e+01 -3.763180e+01
-1.626440e+01 1.837220e+01 -3.546850e+01
-5.789410e+00 3.398460e+01 -2.612360e+01
-1.075510e+01 3.053860e+01 -2.866380e+01
2.259550e+01 3.801690e+00 -3.690280e+01
-2.618880e+01 8.911150e-01 -3.459490e+01
-2.107770e+01 1.235320e+01 -3.595330e+01
-1.935740e+01 1.491950e+01 -3.607750e+01
2.053560e+01 7.937940e+00 -3.772860e+01
1.220550e+01 1.814320e+01 -3.785470e+01
1.141200e+01 1.895150e+01 -3.770760e+01
1.035110e+00 3.389030e+01 -2.770700e+01
-1.244400e+01 2.496490e+01 -3.370750e+01
5.556110e+00 2.481010e+01 -3.568690e+01
2.382010e+01 1.771140e+00 -3.685400e+01
2.254370e+01 4.891930e+00 -3.737560e+01
-1.782980e+01 1.685790e+01 -3.642720e+01
-2.242610e+01 1.089840e+01 -3.617330e+01
-2.404360e+01 7.861320e+00 -3.592190e+01
6.688340e+00 2.386340e+01 -3.649880e+01
9.007930e+00 2.130010e+01 -3.760510e+01
3.775050e+00 3.045380e+01 -3.179160e+01
-8.288420e+00 3.365830e+01 -2.740450e+01
-2.626270e+01 3.081180e+00 -3.533650e+01
2.689980e+00 3.336340e+01 -2.894440e+01
-9.796790e+00 3.243490e+01 -2.842780e+01
-1.237340e+01 2.826320e+01 -3.172970e+01
-1.434630e+01 2.135430e+01 -3.600600e+01
8.020880e+00 2.230240e+01 -3.743340e+01
-1.144740e+01 3.079800e+01 -2.983430e+01
1.610080e+01 1.482460e+01 -3.867550e+01
1.837330e+01 1.235890e+01 -3.865040e+01
-2.093590e+01 1.396480e+01 -3.664260e+01
-1.247370e+01 2.614390e+01 -3.376600e+01
1.373080e+01 1.716560e+01 -3.873770e+01
2.026780e+01 9.938480e+00 -3.844000e+01
2.380170e+01 3.879000e+00 -3.755510e+01
2.166970e+01 7.806330e+00 -3.828790e+01
1.053690e+01 2.029140e+01 -3.862900e+01
-1.921090e+01 1.625140e+01 -3.710620e+01
-1.248820e+01 2.697830e+01 -3.361220e+01
2.326950e+01 5.720480e+00 -3.809870e+01
-2.217760e+01 1.243550e+01 -3.700800e+01
-1.728490e+00 3.585040e+01 -2.719570e+01
-2.630680e+01 5.288690e+00 -3.609140e+01
-3.715220e+00 3.603990e+01 -2.684150e+01
4.648830e+00 2.696300e+01 -3.584410e+01
-2.400140e+01 9.927460e+00 -3.682650e+01
1.763530e+01 1.390100e+01 -3.920520e+01
-1.237140e+01 2.992760e+01 -3.147890e+01
-6.218410e-01 3.575140e+01 -2.769480e+01
-5.640790e+00 3.589140e+01 -2.694020e+01
-1.712450e+01 1.864220e+01 -3.738490e+01
1.178050e+01 1.953040e+01 -3.923120e+01
-1.035790e+01 3.313270e+01 -2.932130e+01
-1.150330e+01 3.188080e+01 -3.025680e+01
6.857800e+00 2.434510e+01 -3.778300e+01
2.128100e+01 1.015070e+01 -3.904190e+01
8.446410e-01 3.557140e+01 -2.856420e+01
3.583260e+00 3.321770e+01 -3.107040e+01
2.572280e+01 1.569060e+00 -3.768710e+01
-2.808890e+01 2.440840e+00 -3.575030e+01
1.550090e+01 1.640910e+01 -3.975400e+01
-2.594850e+01 7.512750e+00 -3.682350e+01
1.918590e+01 1.302440e+01 -3.959720e+01
9.527070e+00 2.149870e+01 -3.940030e+01
2.319430e+01 7.651190e+00 -3.890690e+01
1.311930e+01 1.872160e+01 -3.985160e+01
-1.335380e+01 2.369950e+01 -3.702330e+01
-1.411870e+01 2.279310e+01 -3.732370e+01
-1.545590e+01 2.121440e+01 -3.780460e+01
-2.192360e+01 1.410560e+01 -3.794100e+01
-6.460640e+00 3.650740e+01 -2.747820e+01
2.301970e+00 3.534500e+01 -2.963130e+01
-8.291560e+00 3.574710e+01 -2.810290e+01
-1.997240e+01 1.648290e+01 -3.823070e+01
2.563170e+01 3.802550e+00 -3.840540e+01
-2.406720e+01 1.167540e+01 -3.778240e+01
-2.888950e+01 3.111070e+00 -3.620990e+01
-2.559810e+01 9.729370e+00 -3.755480e+01
1.844920e+01 1.455130e+01 -4.022260e+01
-1.642980e+01 2.040000e+01 -3.847250e+01
5.511080e+00 2.666970e+01 -3.783470e+01
2.073610e+01 1.214020e+01 -3.999420e+01
-2.205400e+00 3.769450e+01 -2.778140e+01
3.362940e+00 3.503800e+01 -3.097040e+01
-3.617610e+00 3.778420e+01 -2.758440e+01
-2.715740e+01 7.348450e+00 -3.742480e+01
-1.795670e+01 1.902050e+01 -3.888380e+01
1.622450e+01 1.699210e+01 -4.064560e+01
4.259770e+00 2.934000e+01 -3.646790e+01
-1.213190e+01 3.241280e+01 -3.179380e+01
-1.094040e+00 3.758960e+01 -2.830230e+01
2.311130e+01 9.778330e+00 -3.987600e+01
2.555180e+01 5.973450e+00 -3.919240e+01
-2.868190e+01 5.053170e+00 -3.695700e+01
-2.365310e+01 1.331440e+01 -3.854480e+01
-1.056330e+01 3.501380e+01 -2.987250e+01
-9.937070e+00 3.579940e+01 -2.922440e+01
1.383560e+01 1.926660e+01 -4.089160e+01
7.503020e+00 2.379550e+01 -4.013840e+01
-2.171750e+01 1.565690e+01 -3.893390e+01
-6.517100e+00 3.772720e+01 -2.785910e+01
-5.496440e+00 3.809300e+01 -2.768130e+01
-2.564440e+01 1.114880e+01 -3.824370e+01
7.553880e-01 3.739140e+01 -2.928220e+01
-1.475030e+01 2.324150e+01 -3.862800e+01
-1.950920e+01 1.807460e+01 -3.929480e+01
-2.672560e+01 9.426300e+00 -3.807200e+01
2.801640e+01 1.372330e+00 -3.852250e+01
-1.418040e+01 2.411500e+01 -3.843620e+01
6.447090e+00 2.543390e+01 -3.978850e+01
-1.339870e+01 2.937130e+01 -3.504250e+01
4.312440e+00 3.249890e+01 -3.490090e+01
-1.648320e+01 2.133380e+01 -3.952880e+01
2.232400e+00 3.721140e+01 -3.016570e+01
4.387400e+00 3.452980e+01 -3.313110e+01
1.827780e+01 1.658220e+01 -4.126060e+01
-2.337690e+01 1.489120e+01 -3.918670e+01
-1.344280e+01 2.771120e+01 -3.690810e+01
2.547400e+01 7.874620e+00 -4.010510e+01
-8.149120e+00 3.790770e+01 -2.852240e+01
-1.164580e+01 3.484720e+01 -3.112440e+01
1.590380e+01 1.893570e+01 -4.134330e+01
-3.099960e+01 2.653050e+00 -3.667460e+01
-2.874990e+01 7.202950e+00 -3.791290e+01
-2.107860e+01 1.714240e+01 -3.973400e+01
2.784170e+01 3.450450e+00 -3.930660e+01
2.064410e+01 1.420840e+01 -4.124790e+01
-1.384640e+01 2.524710e+01 -3.874790e+01
-1.341040e+01 3.162280e+01 -3.400430e+01
4.198930e+00 3.077210e+01 -3.709710e+01
1.005270e+01 2.150940e+01 -4.216130e+01
3.315970e+00 3.701460e+01 -3.106620e+01
-2.474780e+01 1.347540e+01 -3.930480e+01
-1.347260e+01 2.661420e+01 -3.811600e+01
2.280140e+01 1.174280e+01 -4.114070e+01
-1.792260e+01 2.043380e+01 -4.004970e+01
1.151980e+01 2.100030e+01 -4.213870e+01
2.483440e+01 9.544890e+00 -4.069460e+01
4.870580e+00 2.829330e+01 -3.926300e+01
-2.673450e+01 1.121150e+01 -3.900100e+01
5.610220e+00 2.689960e+01 -4.020590e+01
-2.264700e+01 1.628400e+01 -3.995840e+01
2.747360e+01 5.734800e+00 -3.999610e+01
-1.252750e+01 3.450300e+01 -3.230860e+01
-3.916900e+00 3.983370e+01 -2.819130e+01
-9.688740e+00 3.790230e+01 -2.943400e+01
1.349280e+01 2.104050e+01 -4.209460e+01
2.953980e+01 1.266990e+00 -3.910690e+01
-1.930790e+01 1.967020e+01 -4.038550e+01
7.913970e+00 2.371510e+01 -4.210690e+01
-5.711290e+00 3.985260e+01 -2.812900e+01
-3.105840e+01 4.803810e+00 -3.765020e+01
2.703450e+01 7.186710e+00 -4.049590e+01
-6.855550e+00 3.976600e+01 -2.822750e+01
-1.615430e+01 2.271020e+01 -4.050010e+01
-1.590990e+00 3.983450e+01 -2.893530e+01
-2.880820e+01 8.958610e+00 -3.885060e+01
1.823170e+01 1.885280e+01 -4.173130e+01
-1.082050e+01 3.754520e+01 -3.006170e+01
2.620540e+01 8.651810e+00 -4.097770e+01
9.489690e+00 2.323880e+01 -4.248930e+01
2.059540e+01 1.642490e+01 -4.180020e+01
2.867770e+01 4.157160e+00 -4.006030e+01
-1.465480e+01 2.536960e+01 -3.972030e+01
-2.430670e+01 1.556000e+01 -4.006800e+01
2.217470e+01 1.403010e+01 -4.198270e+01
-2.200260e+01 1.783040e+01 -4.054780e+01
6.567710e-01 3.968060e+01 -2.976940e+01
5.262780e+00 3.632910e+01 -3.336970e+01
2.377290e+01 1.206610e+01 -4.184530e+01
4.621010e+00 3.720560e+01 -3.257420e+01
3.029970e+01 1.209790e+00 -3.944930e+01
-2.653110e+01 1.313080e+01 -3.983350e+01
1.584110e+01 2.107720e+01 -4.215070e+01
-3.127410e+00 4.066780e+01 -2.865470e+01
5.009730e+00 3.427700e+01 -3.583880e+01
-8.052570e+00 3.998000e+01 -2.874560e+01
1.147470e+01 2.320630e+01 -4.264010e+01
-1.757150e+01 2.192440e+01 -4.123580e+01
2.590310e+01 9.820530e+00 -4.164690e+01
2.862680e+01 5.579060e+00 -4.066730e+01
-1.346820e+01 3.398260e+01 -3.414550e+01
3.636970e+00 3.897410e+01 -3.127680e+01
-3.102710e+01 6.845420e+00 -3.867510e+01
2.679870e+00 3.962340e+01 -3.065860e+01
2.985680e+01 3.362410e+00 -4.026670e+01
-2.020000e+01 2.020060e+01 -4.119670e+01
-3.328480e+01 2.284080e+00 -3.741570e+01
-1.191130e+01 3.736330e+01 -3.139270e+01
-2.876210e+01 1.063450e+01 -3.972240e+01
-1.427760e+01 3.183410e+01 -3.621350e+01
2.333310e+01 1.392080e+01 -4.239480e+01
1.344810e+01 2.325270e+01 -4.257310e+01
-1.431800e+01 2.883120e+01 -3.867920e+01
7.134740e+00 2.561400e+01 -4.278750e+01
2.055740e+01 1.870340e+01 -4.211150e+01
5.487040e+00 2.769140e+01 -4.184290e+01
-1.085420e+01 3.912710e+01 -3.011910e+01
-9.895240e+00 3.977100e+01 -2.961130e+01
1.818530e+01 2.108720e+01 -4.221450e+01
-3.166670e+00 4.141890e+01 -2.887100e+01
-3.290680e+01 4.075140e+00 -3.815980e+01
-6.553560e+00 4.129900e+01 -2.862050e+01
-2.424480e+01 1.767360e+01 -4.071360e+01
2.786360e+01 7.789380e+00 -4.163990e+01
-3.040130e+01 8.746160e+00 -3.952090e+01
2.532440e+01 1.148500e+01 -4.248490e+01
2.291780e+01 1.628040e+01 -4.230300e+01
-1.305460e+01 3.664580e+01 -3.259620e+01
-1.459830e+01 2.771890e+01 -3.989760e+01
1.580860e+01 2.336820e+01 -4.231920e+01
-2.656820e+01 1.535790e+01 -4.046410e+01
4.747170e+00 2.986180e+01 -4.092710e+01
5.105590e+00 3.915660e+01 -3.228230e+01
9.405780e+00 2.543190e+01 -4.315790e+01
-2.196090e+01 1.993210e+01 -4.139320e+01
-1.458740e+01 3.053290e+01 -3.817790e+01
-1.596200e+01 2.495690e+01 -4.154030e+01
2.978020e+01 5.468700e+00 -4.129530e+01
4.849720e+00 3.267070e+01 -3.908410e+01
-1.839830e+01 2.249190e+01 -4.212740e+01
-1.594180e+00 4.205420e+01 -2.933360e+01
1.140740e+01 2.547550e+01 -4.299890e+01
-3.626740e+00 4.231900e+01 -2.886350e+01
3.181510e+01 1.030730e+00 -4.036490e+01
-3.419680e+01 2.977720e+00 -3.811300e+01
-3.194670e+01 7.522130e+00 -3.944800e+01
-1.431650e+01 3.442770e+01 -3.541260e+01
2.052360e+01 2.105470e+01 -4.224880e+01
-5.458870e+00 4.236570e+01 -2.874750e+01
-2.880840e+01 1.303410e+01 -4.050620e+01
1.806200e+01 2.334200e+01 -4.219600e+01
-2.968170e+01 1.132290e+01 -4.046570e+01
5.767890e-01 4.208400e+01 -2.982810e+01
-3.371030e+01 4.725670e+00 -3.866630e+01
6.965680e+00 2.739110e+01 -4.319130e+01
1.338500e+01 2.554900e+01 -4.282810e+01
-1.471580e+01 3.332400e+01 -3.655510e+01
6.530670e+00 3.672570e+01 -3.574790e+01
-7.845480e+00 4.203620e+01 -2.902970e+01
-3.158530e+01 8.620430e+00 -3.988470e+01
2.526600e+01 1.374740e+01 -4.301070e+01
-1.236200e+01 3.923580e+01 -3.133000e+01
2.288290e+01 1.855520e+01 -4.255190e+01
2.769380e+01 9.565610e+00 -4.279150e+01
-2.969380e+01 1.206890e+01 -4.068040e+01
-2.008740e+01 2.215160e+01 -4.230950e+01
2.842710e+00 4.198150e+01 -3.043300e+01
-2.658580e+01 1.765120e+01 -4.083150e+01
-2.427550e+01 1.994580e+01 -4.123420e+01
1.552690e+01 2.556450e+01 -4.250790e+01
-1.336850e+01 3.846800e+01 -3.229470e+01
6.842410e+00 3.950120e+01 -3.319720e+01
2.031040e+01 2.288090e+01 -4.212330e+01
1.893490e+01 2.429310e+01 -4.197490e+01
5.472950e+00 4.086930e+01 -3.185570e+01
2.485070e+01 1.658220e+01 -4.269210e+01
-1.010010e+01 4.164740e+01 -2.975790e+01
3.177260e+01 3.157790e+00 -4.134690e+01
-1.516110e+01 2.962050e+01 -4.014660e+01
-1.425720e+01 3.729250e+01 -3.363460e+01
5.631680e+00 3.427080e+01 -3.904030e+01
2.962100e+01 7.364860e+00 -4.253060e+01
-1.563210e+01 2.701350e+01 -4.189830e+01
2.555440e+01 1.583670e+01 -4.287130e+01
-2.892000e+01 1.527180e+01 -4.075310e+01
5.395590e+00 2.937290e+01 -4.300860e+01
9.427250e+00 2.761830e+01 -4.350980e+01
-3.124440e+01 1.043220e+01 -4.065580e+01
2.286130e+01 2.104340e+01 -4.226720e+01
1.652240e+01 2.611890e+01 -4.242080e+01
2.065480e+01 2.402980e+01 -4.185900e+01
-3.351330e+01 6.599180e+00 -3.973410e+01
7.300530e+00 3.856650e+01 -3.487970e+01
-3.571410e+01 2.097600e+00 -3.833530e+01
2.716420e+01 1.136610e+01 -4.354510e+01
4.988590e+00 4.205090e+01 -3.119960e+01
1.810830e+01 2.583080e+01 -4.212700e+01
-1.497640e+01 3.626600e+01 -3.503900e+01
-1.802060e+01 2.431840e+01 -4.299830e+01
-2.202690e+01 2.212140e+01 -4.232340e+01
3.145070e+01 5.043740e+00 -4.218080e+01
1.149200e+01 2.787120e+01 -4.337170e+01
-3.047810e+01 1.361320e+01 -4.083880e+01
-2.658790e+01 2.000290e+01 -4.099390e+01
7.507730e+00 4.104590e+01 -3.259170e+01
6.917990e+00 2.926380e+01 -4.356680e+01
7.294870e-01 4.387420e+01 -2.979460e+01
-1.555380e+01 3.277460e+01 -3.859360e+01
2.284740e+01 2.364080e+01 -4.162950e+01
2.924830e+01 8.875140e+00 -4.344210e+01
-1.262830e+01 4.107660e+01 -3.117260e+01
5.215710e+00 3.191660e+01 -4.212290e+01
2.510650e+01 1.857140e+01 -4.304810e+01
-1.567710e+01 3.513380e+01 -3.664510e+01
-8.292690e+00 4.372160e+01 -2.916110e+01
7.622310e+00 3.769710e+01 -3.680580e+01
-3.135930e+01 1.264960e+01 -4.098640e+01
-2.430390e+01 2.223500e+01 -4.171310e+01
1.339130e+01 2.766660e+01 -4.346320e+01
-3.247520e+00 4.453150e+01 -2.906150e+01
-2.893060e+01 1.761220e+01 -4.098610e+01
3.087020e+01 6.673180e+00 -4.295600e+01
3.371160e+01 8.417230e-01 -4.133580e+01
-5.504210e+00 4.444910e+01 -2.891980e+01
7.182030e+00 4.234330e+01 -3.165070e+01
-1.359130e+00 4.451190e+01 -2.936750e+01
3.004580e+01 8.117690e+00 -4.338520e+01
-1.171520e+01 4.218120e+01 -3.051370e+01
-1.417530e+01 4.002690e+01 -3.232000e+01
2.045490e+01 2.590610e+01 -4.200610e+01
-1.675030e+01 2.686890e+01 -4.294620e+01
2.598490e+01 1.764100e+01 -4.327220e+01
-1.503850e+01 3.893630e+01 -3.335590e+01
5.400890e+00 3.085100e+01 -4.330360e+01
-3.578720e+01 4.209590e+00 -3.942510e+01
2.758080e+01 1.353590e+01 -4.384330e+01
9.169420e+00 2.946020e+01 -4.373690e+01
-3.357600e+01 8.339210e+00 -4.075320e+01
2.913280e+00 4.414420e+01 -3.032900e+01
2.518980e+01 2.104030e+01 -4.250820e+01
-1.990830e+01 2.440230e+01 -4.338050e+01
-2.633140e+01 2.208720e+01 -4.116930e+01
3.330630e+01 3.006250e+00 -4.213380e+01
-7.541930e+00 4.453210e+01 -2.917850e+01
-3.125810e+01 1.517770e+01 -4.091630e+01
1.804320e+01 2.726320e+01 -4.273390e+01
3.741420e-01 4.493010e+01 -2.972000e+01
2.974170e+01 9.298860e+00 -4.397000e+01
2.837810e+01 1.184710e+01 -4.426080e+01
-1.596750e+01 3.768740e+01 -3.500990e+01
1.563790e+01 2.779890e+01 -4.352570e+01
2.518470e+01 2.375140e+01 -4.145740e+01
-1.010850e+01 4.405460e+01 -2.957210e+01
3.218800e+01 5.637570e+00 -4.306160e+01
2.754880e+01 1.598170e+01 -4.365890e+01
-2.891510e+01 2.000940e+01 -4.094280e+01
6.954540e+00 3.118290e+01 -4.361550e+01
-1.601390e+01 2.940620e+01 -4.242100e+01
6.735270e+00 3.505310e+01 -4.065560e+01
5.078950e+00 4.428380e+01 -3.078730e+01
-1.600190e+01 3.178760e+01 -4.083750e+01
-2.812730e+01 2.160690e+01 -4.093150e+01
2.418790e+00 4.520460e+01 -3.004830e+01
-2.210860e+01 2.433500e+01 -4.312300e+01
2.279650e+01 2.597580e+01 -4.192790e+01
-1.477460e+01 4.137700e+01 -3.192640e+01
-2.709310e+01 2.290740e+01 -4.105030e+01
-1.796280e+01 2.663410e+01 -4.379030e+01
-3.361810e+01 1.017130e+01 -4.141680e+01
7.007340e+00 3.248810e+01 -4.304310e+01
2.926350e+01 1.089850e+01 -4.459650e+01
-3.564440e+01 6.216440e+00 -4.051940e+01
9.420270e+00 4.195840e+01 -3.341830e+01
-1.329770e+01 4.277110e+01 -3.099150e+01
-1.576230e+01 4.070040e+01 -3.258210e+01
9.290760e+00 3.120180e+01 -4.369080e+01
-1.702430e+01 3.603760e+01 -3.712330e+01
3.170410e+01 7.378340e+00 -4.381420e+01
7.366980e+00 4.423630e+01 -3.111280e+01
1.172870e+01 2.984140e+01 -4.414230e+01
9.116400e+00 3.883690e+01 -3.726430e+01
-3.781360e+01 1.713540e+00 -3.919640e+01
-2.434980e+01 2.452970e+01 -4.216600e+01
9.550090e+00 4.049200e+01 -3.543790e+01
-3.127490e+01 1.751400e+01 -4.117850e+01
-1.236120e+01 4.389710e+01 -3.019150e+01
2.732710e+01 1.902400e+01 -4.346030e+01
7.884280e+00 3.644980e+01 -4.004610e+01
-3.360800e+01 1.261100e+01 -4.129730e+01
2.767010e+01 1.785590e+01 -4.387230e+01
-1.742210e+01 3.955860e+01 -3.375100e+01
-2.897620e+01 2.255660e+01 -4.066950e+01
7.304260e+00 3.392940e+01 -4.251110e+01
-3.514920e+01 8.160620e+00 -4.124950e+01
-3.733640e+01 3.626860e+00 -3.997650e+01
-1.735220e+01 3.813260e+01 -3.544970e+01
-1.731420e+01 4.063290e+01 -3.263880e+01
3.441990e+01 2.849030e+00 -4.284950e+01
1.001130e+01 4.312040e+01 -3.267520e+01
-3.283000e+01 1.546500e+01 -4.120430e+01
-2.660500e+01 2.473530e+01 -4.122030e+01
2.751500e+01 2.102540e+01 -4.281560e+01
9.302700e+00 3.242230e+01 -4.350760e+01
2.936420e+01 1.393880e+01 -4.459180e+01
1.796490e+01 2.814780e+01 -4.392110e+01
-3.123400e+01 1.999920e+01 -4.080240e+01
-1.486650e+01 4.303140e+01 -3.127290e+01
2.963640e+01 1.281190e+01 -4.487550e+01
-3.287930e+00 4.680640e+01 -2.924850e+01
-1.795720e+01 3.719830e+01 -3.666320e+01
-1.392460e+00 4.682810e+01 -2.939300e+01
2.513150e+01 2.607200e+01 -4.181590e+01
-1.990920e+01 2.651330e+01 -4.414410e+01
2.750760e+01 2.375200e+01 -4.171490e+01
9.539790e+00 4.434430e+01 -3.169340e+01
9.422550e+00 3.778140e+01 -3.927330e+01
1.026460e+01 3.972400e+01 -3.710930e+01
-5.541540e+00 4.672420e+01 -2.910890e+01
-1.727370e+01 4.154820e+01 -3.215310e+01
1.161400e+01 3.174250e+01 -4.380200e+01
1.150390e+01 4.200930e+01 -3.423270e+01
5.448670e+00 4.590700e+01 -3.053920e+01
5.034890e-01 4.680830e+01 -2.965210e+01
-1.087700e+01 4.559200e+01 -2.953510e+01
1.083770e+01 3.242650e+01 -4.363460e+01
3.153880e+01 9.034110e+00 -4.476180e+01
-1.719970e+01 3.285170e+01 -4.118240e+01
-1.777580e+01 3.494720e+01 -3.918580e+01
-7.806160e+00 4.660270e+01 -2.911450e+01
-3.383070e+01 1.490330e+01 -4.127350e+01
3.398270e+01 5.011450e+00 -4.366090e+01
2.785220e+00 4.679730e+01 -2.989440e+01
2.034920e+01 2.790180e+01 -4.355290e+01
9.326960e+00 3.417020e+01 -4.283630e+01
-3.667250e+01 6.530700e+00 -4.116380e+01
-1.763690e+01 2.896910e+01 -4.400720e+01
2.945830e+01 1.581950e+01 -4.456240e+01
1.346620e+01 2.971730e+01 -4.514790e+01
-3.117670e+01 2.253460e+01 -4.019460e+01
1.184580e+01 4.132410e+01 -3.552980e+01
9.550500e+00 3.641410e+01 -4.116740e+01
-3.883410e+01 2.005040e+00 -3.992660e+01
1.210360e+01 4.320820e+01 -3.328450e+01
-1.478160e+01 4.442280e+01 -3.042330e+01
-3.538580e+01 1.020140e+01 -4.184970e+01
-1.000250e+01 4.657380e+01 -2.925280e+01
-2.890740e+01 2.481090e+01 -4.082700e+01
-1.760540e+01 3.154430e+01 -4.261330e+01
4.957660e+00 4.699020e+01 -3.016160e+01
-1.799010e+01 3.370070e+01 -4.089340e+01
2.192740e+01 2.799050e+01 -4.335250e+01
-1.948400e+01 3.919910e+01 -3.499220e+01
-1.728000e+01 4.321460e+01 -3.134470e+01
1.391550e+01 2.961210e+01 -4.560000e+01
-1.877010e+01 4.237980e+01 -3.174470e+01
-3.352710e+01 1.748370e+01 -4.146040e+01
1.176990e+01 4.001850e+01 -3.770000e+01
7.359030e+00 4.673740e+01 -3.043320e+01
-3.836950e+01 3.899170e+00 -4.077120e+01
-1.253460e+01 4.603170e+01 -2.974090e+01
-3.634960e+01 8.341150e+00 -4.193720e+01
-2.214530e+01 2.634690e+01 -4.436670e+01
-1.955210e+01 4.090450e+01 -3.322590e+01
1.629810e+01 2.892270e+01 -4.538880e+01
2.942570e+01 1.827020e+01 -4.435090e+01
1.177070e+01 4.443440e+01 -3.248340e+01
1.160280e+01 3.415190e+01 -4.318740e+01
-1.634350e+01 4.429690e+01 -3.067400e+01
2.310900e+01 2.810500e+01 -4.302910e+01
1.165210e+01 3.669940e+01 -4.112040e+01
-3.345490e+01 1.988770e+01 -4.065170e+01
3.147010e+01 1.083830e+01 -4.557090e+01
-2.705560e+01 2.616380e+01 -4.189920e+01
1.168740e+01 3.825100e+01 -3.982100e+01
1.369570e+01 4.321010e+01 -3.368640e+01
-2.448410e+01 2.620990e+01 -4.354900e+01
1.352300e+01 3.182430e+01 -4.468910e+01
2.745550e+01 2.608700e+01 -4.202030e+01
2.981920e+01 2.096630e+01 -4.327670e+01
-3.440880e+01 1.651930e+01 -4.159940e+01
9.668500e+00 4.673490e+01 -3.048910e+01
-1.996100e+01 2.885430e+01 -4.430150e+01
-1.954640e+01 3.568390e+01 -3.929050e+01
-1.841820e+01 3.054250e+01 -4.389290e+01
2.242490e+01 3.142690e+01 -4.146560e+01
3.390570e+01 7.085520e+00 -4.487300e+01
1.249580e+01 3.935000e+01 -3.880670e+01
-3.596920e+01 1.238110e+01 -4.185880e+01
-1.992970e+01 3.782800e+01 -3.717540e+01
2.981620e+01 2.371420e+01 -4.209340e+01
1.335380e+01 4.158520e+01 -3.628590e+01
1.194260e+01 4.571450e+01 -3.163580e+01
-4.000450e+01 1.486870e+00 -4.020270e+01
1.536640e+01 2.964870e+01 -4.598350e+01
-1.202300e+01 4.713470e+01 -2.943470e+01
-3.348720e+01 2.254920e+01 -3.994560e+01
-3.428570e+01 2.088230e+01 -4.017930e+01
-3.651240e+01 1.010240e+01 -4.232810e+01
2.281430e+01 3.040110e+01 -4.237790e+01
3.079110e+01 1.591260e+01 -4.518180e+01
3.141750e+01 1.322710e+01 -4.562380e+01
1.438990e+01 4.444730e+01 -3.260640e+01
-2.063890e+01 4.004360e+01 -3.474290e+01
-2.031850e+01 3.669750e+01 -3.843660e+01
1.353260e+01 3.411390e+01 -4.353990e+01
1.786530e+01 2.982570e+01 -4.513030e+01
-1.475910e+01 4.606630e+01 -3.012160e+01
-3.823760e+01 5.940130e+00 -4.170700e+01
2.506130e+01 2.824070e+01 -4.272250e+01
2.004400e+01 3.003080e+01 -4.412140e+01
-3.122630e+01 2.479840e+01 -4.070280e+01
2.106890e+01 3.081590e+01 -4.317830e+01
1.400770e+01 3.825360e+01 -4.003050e+01
1.380900e+01 3.674160e+01 -4.148350e+01
-1.995080e+01 3.053710e+01 -4.383950e+01
3.628640e+01 2.566020e+00 -4.409070e+01
1.404270e+01 3.933780e+01 -3.897780e+01
-1.963170e+01 4.325690e+01 -3.167370e+01
-1.994810e+01 3.445160e+01 -4.096240e+01
-1.993490e+01 3.194390e+01 -4.295390e+01
-3.317500e+00 4.912460e+01 -2.925060e+01
-1.424600e+00 4.913740e+01 -2.941920e+01
1.492470e+01 4.261210e+01 -3.530430e+01
-5.571030e+00 4.905340e+01 -2.911000e+01
1.198190e+01 4.716710e+01 -3.033170e+01
-3.505370e+01 2.086110e+01 -4.012690e+01
-3.597640e+01 1.475100e+01 -4.196840e+01
4.750450e-01 4.914430e+01 -2.957090e+01
-2.899410e+01 2.614880e+01 -4.186570e+01
1.493190e+01 3.184050e+01 -4.528330e+01
1.422980e+01 4.076260e+01 -3.783330e+01
-2.307420e+01 2.710240e+01 -4.496980e+01
-7.828270e+00 4.896450e+01 -2.902800e+01
2.762400e+00 4.916230e+01 -2.968210e+01
3.368500e+01 8.765710e+00 -4.579810e+01
2.223790e+01 3.284690e+01 -4.165330e+01
-2.137040e+01 4.094560e+01 -3.425350e+01
-1.793740e+01 4.489210e+01 -3.118660e+01
1.611930e+01 4.369900e+01 -3.401150e+01
3.602480e+01 4.654570e+00 -4.480280e+01
1.655780e+01 4.486310e+01 -3.229100e+01
5.058890e+00 4.916320e+01 -2.980070e+01
-2.148700e+01 3.759310e+01 -3.802320e+01
-2.034250e+01 3.328620e+01 -4.239110e+01
-2.669510e+01 2.683230e+01 -4.344100e+01
3.183310e+01 1.548120e+01 -4.561050e+01
-2.220840e+01 2.886390e+01 -4.467590e+01
-1.010250e+01 4.886090e+01 -2.905880e+01
1.585740e+01 3.311800e+01 -4.454500e+01
-4.009810e+01 3.596540e+00 -4.125550e+01
1.536070e+01 3.431460e+01 -4.383450e+01
3.544650e+01 6.242880e+00 -4.522510e+01
-2.184170e+01 4.313370e+01 -3.155520e+01
-3.596830e+01 1.676950e+01 -4.188790e+01
-1.701790e+01 4.594150e+01 -3.064260e+01
-3.595900e+01 1.980980e+01 -4.055830e+01
1.633900e+01 3.827140e+01 -4.016390e+01
1.438440e+01 4.595250e+01 -3.213010e+01
1.579140e+01 4.573300e+01 -3.181600e+01
-3.593610e+01 1.807380e+01 -4.148270e+01
3.132570e+01 1.811570e+01 -4.521320e+01
-2.309850e+01 2.786530e+01 -4.512500e+01
1.635690e+01 3.928650e+01 -3.936280e+01
2.061240e+01 3.231970e+01 -4.351040e+01
-2.225990e+01 3.053080e+01 -4.387070e+01
3.173410e+01 2.273370e+01 -4.292990e+01
-3.832170e+01 8.089830e+00 -4.264670e+01
1.408990e+01 4.734970e+01 -3.050980e+01
7.350910e+00 4.913200e+01 -3.004200e+01
1.467500e+01 3.581900e+01 -4.325850e+01
3.172610e+01 2.129170e+01 -4.378140e+01
2.975860e+01 2.599000e+01 -4.262680e+01
3.338890e+01 1.070260e+01 -4.636920e+01
-3.755370e+01 1.258350e+01 -4.237930e+01
1.588720e+01 3.699980e+01 -4.192100e+01
1.940650e+01 3.204350e+01 -4.444940e+01
-2.462510e+01 2.706570e+01 -4.505170e+01
2.738880e+01 2.828340e+01 -4.281830e+01
-1.240970e+01 4.868100e+01 -2.940390e+01
3.170880e+01 1.986970e+01 -4.463280e+01
-3.092370e+01 2.615200e+01 -4.171020e+01
1.780270e+01 3.174170e+01 -4.544550e+01
-3.580790e+01 2.247680e+01 -3.992310e+01
-2.224240e+01 3.185810e+01 -4.328410e+01
-2.241730e+01 3.683420e+01 -3.908600e+01
1.592650e+01 3.128950e+01 -4.650930e+01
-2.207420e+01 3.505460e+01 -4.090980e+01
-1.951810e+01 4.495940e+01 -3.151780e+01
-3.354780e+01 2.477120e+01 -4.062090e+01
2.499730e+01 3.058640e+01 -4.293550e+01
3.195890e+01 2.415300e+01 -4.249160e+01
1.637180e+01 4.072000e+01 -3.850860e+01
-2.227080e+01 4.027220e+01 -3.587570e+01
9.647470e+00 4.908870e+01 -3.029000e+01
1.806490e+01 4.471250e+01 -3.311710e+01
1.668300e+01 4.682970e+01 -3.085680e+01
3.458780e+01 9.146470e+00 -4.630220e+01
-2.414970e+01 3.061320e+01 -4.348450e+01
1.642100e+01 4.278730e+01 -3.639340e+01
-3.835340e+01 1.002460e+01 -4.288370e+01
-4.160480e+01 1.198150e+00 -4.104190e+01
1.583430e+01 3.576990e+01 -4.356460e+01
-2.243720e+01 3.881950e+01 -3.757350e+01
-2.909660e+01 2.690020e+01 -4.300730e+01
-2.404980e+01 4.320440e+01 -3.144340e+01
2.336710e+01 3.253790e+01 -4.296060e+01
-4.019640e+01 5.719480e+00 -4.228750e+01
1.828420e+01 3.924020e+01 -3.971600e+01
-2.178780e+01 4.481650e+01 -3.104410e+01
-2.465470e+01 2.802000e+01 -4.524640e+01
-2.242710e+01 3.354290e+01 -4.262520e+01
-2.502620e+01 4.207290e+01 -3.247150e+01
1.798160e+01 3.325930e+01 -4.500240e+01
1.677790e+01 4.216960e+01 -3.744650e+01
3.698680e+01 5.007390e+00 -4.551140e+01
-1.415850e+01 4.871050e+01 -2.977240e+01
-1.521020e+01 4.826850e+01 -2.997520e+01
1.763590e+01 3.452220e+01 -4.424790e+01
-2.462270e+01 2.922680e+01 -4.466390e+01
-1.945810e+01 4.615570e+01 -3.093770e+01
2.233020e+01 3.491380e+01 -4.187860e+01
-2.464370e+01 3.175010e+01 -4.299250e+01
-1.450410e+00 5.105160e+01 -2.945750e+01
1.194570e+01 4.905270e+01 -3.051390e+01
4.549110e-01 5.109030e+01 -2.948130e+01
3.361630e+01 1.314240e+01 -4.666330e+01
-4.129350e+01 3.397810e+00 -4.182640e+01
-3.858250e+01 1.190280e+01 -4.286760e+01
-2.616520e+01 2.788380e+01 -4.484800e+01
3.627670e+01 6.928070e+00 -4.613980e+01
-2.452240e+01 4.070390e+01 -3.507350e+01
1.919130e+01 4.458350e+01 -3.381790e+01
1.900850e+01 4.609590e+01 -3.189740e+01
1.821880e+01 3.795330e+01 -4.157890e+01
3.453600e+01 1.060300e+01 -4.688790e+01
1.853650e+01 4.079710e+01 -3.869050e+01
-3.447470e+00 5.130990e+01 -2.936670e+01
-3.808640e+01 1.472950e+01 -4.273440e+01
3.192100e+01 2.549030e+01 -4.291200e+01
1.778150e+01 3.626530e+01 -4.340630e+01
2.837120e+00 5.138930e+01 -2.958510e+01
-5.615460e+00 5.136900e+01 -2.920240e+01
-2.404970e+01 4.487700e+01 -3.051840e+01
-2.699640e+01 2.892290e+01 -4.416960e+01
1.959950e+01 3.368850e+01 -4.481170e+01
-3.148610e+01 2.700290e+01 -4.238240e+01
-3.584980e+01 2.479110e+01 -4.025040e+01
-3.820060e+01 1.972380e+01 -4.087860e+01
-2.439310e+01 3.698740e+01 -3.952090e+01
3.324810e+01 2.159870e+01 -4.435030e+01
2.039360e+01 3.429880e+01 -4.409140e+01
-2.407310e+01 4.482370e+01 -3.075040e+01
-7.874790e+00 5.132300e+01 -2.904340e+01
-2.623470e+01 4.193130e+01 -3.300290e+01
3.366050e+01 1.545700e+01 -4.661250e+01
-1.708050e+01 4.826330e+01 -3.032100e+01
1.424640e+01 4.906840e+01 -3.061320e+01
-2.637460e+01 4.360750e+01 -3.069820e+01
-2.176120e+01 4.605450e+01 -3.076010e+01
1.870450e+01 4.214590e+01 -3.769980e+01
-2.440400e+01 3.904130e+01 -3.772350e+01
2.020920e+01 3.918090e+01 -4.013370e+01
1.872240e+01 4.316740e+01 -3.663180e+01
-3.830000e+01 1.696460e+01 -4.225520e+01
3.449620e+01 1.215400e+01 -4.710110e+01
5.041840e+00 5.144810e+01 -2.975300e+01
1.866680e+01 4.727440e+01 -3.127720e+01
-4.027720e+01 7.898910e+00 -4.310680e+01
2.732350e+01 3.054570e+01 -4.334720e+01
2.476290e+01 3.233450e+01 -4.358080e+01
3.322420e+01 1.882130e+01 -4.584630e+01
-4.136240e+01 4.792280e+00 -4.259380e+01
-2.458690e+01 3.511250e+01 -4.141120e+01
2.969050e+01 2.817480e+01 -4.347340e+01
-2.673810e+01 3.177960e+01 -4.275300e+01
3.855250e+01 2.217380e+00 -4.558210e+01
-2.458030e+01 3.359430e+01 -4.269660e+01
-3.888090e+01 1.382800e+01 -4.301550e+01
2.330600e+01 3.409110e+01 -4.315350e+01
-1.013730e+01 5.119280e+01 -2.911000e+01
-3.289400e+01 2.684540e+01 -4.197670e+01
-3.764440e+01 2.283770e+01 -4.034050e+01
